1623
-8.434640 6.803970 6.230000
-7.401910 9.391700 3.641090
-8.511020 8.066140 4.330110
-8.158160 8.529740 4.115590
-7.788060 8.971900 3.886010
-7.313610 9.211610 4.231700
-8.060190 8.322650 4.692210
-7.695350 8.778190 4.469320
-7.206610 9.007070 4.815320
-7.581911 8.561040 5.047110
-5.354240 10.173800 4.906620
-6.918250 9.622810 3.973590
-6.411810 9.831810 4.298150
-5.888250 10.016200 4.610170
-5.769290 9.801490 5.186150
-6.817451 9.431090 4.563660
-6.300920 9.628390 4.882890
-6.172260 9.402160 5.454600
-6.698610 9.215640 5.143010
-8.779320 5.389100 7.080319
-9.215640 5.143010 6.698610
-9.007070 4.815320 7.206610
-9.431090 4.563660 6.817451
-9.211610 4.231700 7.313620
-9.622810 3.973590 6.918250
-9.628390 4.882890 6.300910
-9.831810 4.298140 6.411810
-10.016200 4.610160 5.888240
-7.794449 3.965770 8.931360
-8.320760 5.615860 7.448289
-8.561040 5.047110 7.581911
-8.092620 5.264570 7.940001
-8.322650 4.692210 8.060190
-7.845720 4.900720 8.406990
-8.066120 4.330100 8.511040
-8.264370 3.759420 8.591670
-8.778190 4.469320 7.695350
-8.529720 4.115590 8.158160
-8.713800 3.537290 8.234510
-8.971890 3.886010 7.788070
-6.262460 6.402061 8.720390
-8.054100 6.179950 7.293120
-7.836210 5.835710 7.796690
-7.556270 6.394320 7.633171
-7.329650 6.040790 8.126200
-7.037510 6.592470 7.953790
-6.803970 6.229990 8.434640
-6.555110 5.851840 8.890240
-7.599450 5.475240 8.277690
-7.086060 5.671340 8.594990
-6.827300 5.289720 9.036410
-7.345840 5.102440 8.732340
-6.773040 8.252750 6.501390
-7.764811 6.725300 7.122360
-7.453560 7.254660 6.932840
-7.122360 7.764811 6.725300
-6.592470 7.953790 7.037510
-7.254660 6.932840 7.453560
-6.932840 7.453560 7.254660
-6.394320 7.633171 7.556270
-6.725300 7.122360 7.764811
-4.530020 8.844970 7.582560
-6.402061 8.720390 6.262460
-6.230000 8.434640 6.803970
-5.851840 8.890240 6.555110
-5.671340 8.594990 7.086060
-5.289740 9.036400 6.827300
-5.102450 8.732320 7.345840
-4.900720 8.406990 7.845720
-6.040800 8.126200 7.329640
-5.475240 8.277690 7.599450
-5.264570 7.940001 8.092620
-5.835710 7.796690 7.836210
-4.810160 10.306700 5.184960
-6.020770 9.157340 6.011950
-5.626850 9.568290 5.747720
-5.223150 9.951600 5.471220
-4.674020 10.073800 5.737790
-5.466670 9.313290 6.295090
-5.073440 9.707990 6.022050
-4.518650 9.820120 6.276690
-4.906140 9.443070 6.558050
-2.744140 10.561400 6.097250
-4.287200 10.406100 5.438990
-3.767970 10.480500 5.675490
-3.253310 10.531800 5.894700
-3.107760 10.272900 6.407710
-4.147320 10.163500 5.979320
-3.625020 10.229300 6.202490
-3.460220 9.959120 6.715110
-3.986940 9.901190 6.505440
-7.518650 3.616400 9.308150
-7.993410 3.418590 8.981570
-7.712140 3.079390 9.342920
-8.171510 2.872940 9.012360
-7.884760 2.543570 9.360060
-8.325490 2.324850 9.029470
-8.448410 3.204200 8.637560
-8.609070 2.647440 8.667460
-8.881590 2.972240 8.278470
-6.295461 2.244240 10.563200
-7.015260 3.808670 9.619260
-7.222950 3.278450 9.660790
-6.715099 3.460220 9.959140
-6.918420 2.940470 9.986950
-6.407710 3.107760 10.272900
-6.607870 2.598190 10.287600
-6.790569 2.093900 10.283700
-7.411941 2.751960 9.681940
-7.103700 2.424890 9.995360
-7.268200 1.911460 9.988470
-7.580020 2.226860 9.686810
-6.799890 4.345670 9.546020
-6.505420 3.986940 9.901200
-6.276690 4.518650 9.820140
-5.979310 4.147310 10.163500
-5.737790 4.674020 10.073800
-5.438990 4.287200 10.406100
-5.135700 3.887850 10.712600
-6.202490 3.625020 10.229300
-5.675490 3.767970 10.480500
-5.368990 3.373720 10.772300
-5.894700 3.253310 10.531800
-5.709690 6.561600 8.977460
-6.558050 4.906140 9.443070
-6.295090 5.466670 9.313290
-6.011950 6.020770 9.157340
-5.454600 6.172260 9.402160
-6.022050 5.073440 9.707990
-5.747720 5.626860 9.568290
-5.186140 5.769290 9.801500
-5.471210 5.223160 9.951600
-5.389110 7.080319 8.779320
-5.143010 6.698610 9.215640
-4.815320 7.206610 9.007070
-4.563660 6.817451 9.431090
-4.231710 7.313610 9.211610
-3.973590 6.918250 9.622810
-3.702070 6.505850 10.010900
-4.882890 6.300910 9.628390
-4.298150 6.411810 9.831810
-4.020840 5.990090 10.207900
-4.610160 5.888240 10.016200
-3.965770 8.931360 7.794449
-5.047110 7.581911 8.561040
-4.692220 8.060190 8.322650
-4.330110 8.511020 8.066140
-3.759420 8.591670 8.264370
-4.469320 7.695350 8.778190
-4.115600 8.158160 8.529720
-3.537300 8.234500 8.713810
-3.886010 7.788060 8.971900
-3.616400 9.308150 7.518650
-3.418590 8.981560 7.993420
-3.079400 9.342920 7.712120
-2.872940 9.012360 8.171510
-2.543570 9.360060 7.884760
-2.324850 9.029470 8.325490
-2.085070 8.687210 8.742710
-3.204210 8.637550 8.448410
-2.647450 8.667450 8.609070
-2.402820 8.309750 9.023550
-2.972240 8.278470 8.881590
-2.244240 10.563200 6.295461
-3.278440 9.660790 7.222950
-2.940470 9.986950 6.918420
-2.598190 10.287600 6.607870
-2.093900 10.283600 6.790589
-2.751960 9.681940 7.411941
-2.424870 9.995360 7.103710
-1.911460 9.988470 7.268200
-2.226860 9.686810 7.580020
-0.251866 10.444600 6.862670
-1.728570 10.553400 6.472001
-1.220070 10.527000 6.628990
-0.715694 10.491600 6.757520
-0.525669 10.225500 7.170250
-1.570060 10.271800 6.948020
-1.048520 10.249400 7.078100
-0.830901 9.963670 7.502320
-1.373260 9.978520 7.402240
-6.455140 0.407527 10.696500
-6.472001 1.728570 10.553400
-6.157890 1.344420 10.794600
-6.628990 1.220070 10.527000
-6.319710 0.850545 10.751200
-6.757520 0.715694 10.491600
-6.948020 1.570070 10.271800
-7.078100 1.048520 10.249400
-7.402240 1.373260 9.978520
-9.308150 7.518650 -3.616400
-10.561400 6.097250 -2.744140
-10.563200 6.295461 -2.244240
-10.287600 6.607870 -2.598190
-10.272900 6.407710 -3.107760
-9.986950 6.918420 -2.940460
-9.959120 6.715099 -3.460220
-9.660790 7.222950 -3.278440
-9.342920 7.712140 -3.079390
-10.283700 6.790569 -2.093900
-9.995360 7.103700 -2.424890
-9.681940 7.411941 -2.751970
-9.360060 7.884760 -2.543570
-9.988470 7.268200 -1.911460
-9.686810 7.580020 -2.226860
-10.306700 5.184960 -4.810160
-10.531800 5.894700 -3.253310
-10.480500 5.675490 -3.767970
-10.406100 5.438990 -4.287200
-10.073800 5.737790 -4.674020
-10.229300 6.202490 -3.625020
-10.163500 5.979310 -4.147320
-9.820120 6.276690 -4.518650
-9.901200 6.505420 -3.986940
-8.931360 7.794449 -3.965770
-8.981560 7.993420 -3.418590
-8.591670 8.264370 -3.759420
-8.637550 8.448420 -3.204200
-8.234500 8.713810 -3.537300
-8.278470 8.881590 -2.972240
-9.012360 8.171510 -2.872940
-8.667460 8.609070 -2.647440
-9.029470 8.325490 -2.324850
-7.080319 8.779320 -5.389100
-8.844990 7.582560 -4.530010
-8.511040 8.066140 -4.330100
-8.406990 7.845720 -4.900720
-8.060190 8.322650 -4.692210
-7.940010 8.092620 -5.264560
-7.581911 8.561040 -5.047110
-7.206610 9.007070 -4.815320
-8.158160 8.529720 -4.115590
-7.695361 8.778190 -4.469320
-7.313610 9.211610 -4.231690
-7.788060 8.971900 -3.886010
-8.252750 6.501370 -6.773050
-9.157060 7.077610 -4.722890
-8.732340 7.345840 -5.102450
-9.036410 6.827300 -5.289720
-8.594990 7.086060 -5.671340
-8.890240 6.555120 -5.851840
-8.434640 6.803970 -6.230000
-7.953790 7.037510 -6.592470
-8.277700 7.599450 -5.475220
-8.126200 7.329650 -6.040790
-7.633171 7.556270 -6.394320
-7.796690 7.836210 -5.835710
-10.173800 4.906620 -5.354240
-9.443070 6.558050 -4.906140
-9.707990 6.022050 -5.073440
-9.951600 5.471220 -5.223150
-9.801490 5.186150 -5.769290
-9.313290 6.295090 -5.466670
-9.568290 5.747720 -5.626850
-9.402160 5.454600 -6.172260
-9.157340 6.011950 -6.020770
-9.391700 3.641090 -7.401910
-10.016200 4.610170 -5.888250
-9.831810 4.298150 -6.411810
-9.622810 3.973590 -6.918250
-9.211610 4.231700 -7.313620
-9.628390 4.882890 -6.300910
-9.431090 4.563660 -6.817451
-9.007070 4.815320 -7.206610
-9.215640 5.143010 -6.698610
-6.561600 8.977460 -5.709690
-6.698610 9.215640 -5.143010
-6.172250 9.402170 -5.454570
-6.300910 9.628390 -4.882890
-5.769290 9.801490 -5.186150
-5.888240 10.016200 -4.610160
-6.817451 9.431090 -4.563660
-6.411810 9.831810 -4.298140
-6.918250 9.622810 -3.973590
-4.345670 9.546020 -6.799890
-6.402061 8.720390 -6.262460
-6.020770 9.157340 -6.011950
-5.851840 8.890240 -6.555110
-5.466660 9.313290 -6.295090
-5.289720 9.036410 -6.827300
-4.906140 9.443070 -6.558050
-4.518650 9.820140 -6.276690
-5.626860 9.568290 -5.747720
-5.073440 9.707990 -6.022050
-4.674020 10.073800 -5.737790
-5.223150 9.951600 -5.471220
-5.615860 7.448270 -8.320770
-6.773040 8.252750 -6.501390
-6.230000 8.434640 -6.803970
-6.592470 7.953790 -7.037510
-6.040790 8.126200 -7.329650
-6.394320 7.633171 -7.556270
-5.835710 7.796690 -7.836210
-5.264570 7.940001 -8.092620
-5.671340 8.594990 -7.086060
-5.475240 8.277700 -7.599440
-4.900720 8.406990 -7.845720
-5.102440 8.732340 -7.345840
-8.054100 6.179950 -7.293120
-7.122360 7.764811 -6.725300
-7.453560 7.254660 -6.932840
-7.764811 6.725300 -7.122360
-7.556270 6.394320 -7.633171
-6.932840 7.453560 -7.254660
-7.254660 6.932840 -7.453560
-7.037510 6.592470 -7.953790
-6.725300 7.122360 -7.764811
-7.077610 4.722890 -9.157060
-8.320760 5.615860 -7.448289
-7.836210 5.835710 -7.796690
-8.092620 5.264570 -7.940001
-7.599450 5.475240 -8.277690
-7.845720 4.900720 -8.406990
-7.345840 5.102440 -8.732340
-6.827300 5.289720 -9.036410
-7.329650 6.040800 -8.126190
-7.086060 5.671340 -8.594990
-6.555110 5.851840 -8.890240
-6.803970 6.230000 -8.434640
-9.141150 3.299040 -7.861650
-8.561040 5.047110 -7.581900
-8.778190 4.469320 -7.695350
-8.971890 3.886010 -7.788070
-8.713810 3.537300 -8.234500
-8.322650 4.692220 -8.060190
-8.529720 4.115600 -8.158160
-8.264370 3.759420 -8.591670
-8.066120 4.330100 -8.511040
-8.032270 2.005020 -9.365500
-8.881590 2.972240 -8.278470
-8.609070 2.647440 -8.667460
-8.325490 2.324850 -9.029470
-7.884760 2.543570 -9.360060
-8.448420 3.204200 -8.637550
-8.171510 2.872940 -9.012360
-7.712140 3.079390 -9.342920
-7.993410 3.418590 -8.981570
-3.808670 9.619260 -7.015260
-3.986940 9.901200 -6.505420
-3.460220 9.959140 -6.715099
-3.625020 10.229300 -6.202490
-3.107760 10.272900 -6.407710
-3.253310 10.531800 -5.894700
-4.147310 10.163500 -5.979310
-3.767970 10.480500 -5.675490
-4.287200 10.406100 -5.438990
-1.699150 9.681210 -7.722500
-3.616400 9.308150 -7.518650
-3.278440 9.660790 -7.222950
-3.079390 9.342920 -7.712140
-2.751970 9.681920 -7.411941
-2.543570 9.360060 -7.884750
-2.226860 9.686810 -7.580020
-1.911460 9.988470 -7.268200
-2.940460 9.986950 -6.918420
-2.424870 9.995370 -7.103700
-2.093900 10.283700 -6.790569
-2.598190 10.287600 -6.607870
-2.723070 7.905450 -9.291860
-3.965770 8.931360 -7.794449
-3.418590 8.981570 -7.993410
-3.759420 8.591670 -8.264370
-3.204200 8.637550 -8.448420
-3.537290 8.234510 -8.713800
-2.972240 8.278470 -8.881590
-2.402820 8.309750 -9.023550
-2.872940 9.012360 -8.171510
-2.647440 8.667460 -8.609070
-2.085070 8.687210 -8.742710
-2.324850 9.029470 -8.325490
-5.389110 7.080319 -8.779320
-4.330110 8.511040 -8.066120
-4.692220 8.060190 -8.322650
-5.047110 7.581911 -8.561020
-4.815320 7.206610 -9.007070
-4.115590 8.158160 -8.529720
-4.469320 7.695350 -8.778190
-4.231710 7.313610 -9.211610
-3.886010 7.788070 -8.971890
-4.327450 5.461740 -10.377500
-5.709690 6.561600 -8.977460
-5.143010 6.698610 -9.215640
-5.454600 6.172260 -9.402160
-4.882890 6.300910 -9.628390
-5.186150 5.769290 -9.801490
-4.610170 5.888240 -10.016200
-4.020840 5.990090 -10.207900
-4.563660 6.817451 -9.431090
-4.298150 6.411810 -9.831810
-3.702070 6.505850 -10.010900
-3.973590 6.918250 -9.622810
-6.799900 4.345660 -9.546020
-6.011950 6.020770 -9.157340
-6.295090 5.466670 -9.313290
-6.558050 4.906140 -9.443070
-6.276690 4.518650 -9.820120
-5.747720 5.626860 -9.568290
-6.022060 5.073440 -9.707990
-5.737790 4.674020 -10.073800
-5.471220 5.223150 -9.951600
-5.586190 2.864750 -10.809100
-7.015260 3.808690 -9.619250
-6.505420 3.986940 -9.901200
-6.715099 3.460220 -9.959120
-6.202490 3.625020 -10.229300
-6.407710 3.107760 -10.272900
-5.894700 3.253310 -10.531800
-5.368990 3.373720 -10.772300
-5.979320 4.147320 -10.163500
-5.675490 3.767970 -10.480500
-5.135710 3.887850 -10.712600
-5.438990 4.287200 -10.406100
-7.722500 1.699160 -9.681210
-7.222950 3.278440 -9.660790
-7.411941 2.751970 -9.681920
-7.580020 2.226860 -9.686810
-7.268200 1.911460 -9.988470
-6.918420 2.940460 -9.986950
-7.103700 2.424890 -9.995360
-6.790569 2.093900 -10.283700
-6.607870 2.598190 -10.287600
-6.455140 0.407527 -10.696500
-7.402240 1.373260 -9.978520
-7.078100 1.048520 -10.249400
-6.757540 0.715692 -10.491600
-6.319719 0.850545 -10.751200
-6.948040 1.570060 -10.271800
-6.628990 1.220070 -10.527000
-6.157890 1.344420 -10.794600
-6.472001 1.728570 -10.553400
0.000000 10.633100 -6.571640
-0.251866 10.444600 -6.862670
-1.142770 9.676810 -7.829650
-1.373260 9.978520 -7.402240
-0.830901 9.963670 -7.502310
-1.048520 10.249400 -7.078100
-0.525669 10.225500 -7.170260
-0.715692 10.491600 -6.757540
-1.570060 10.271800 -6.948040
-1.220070 10.527000 -6.628990
-1.728570 10.553400 -6.472001
-2.042790 -11.854300 -3.398850
-2.435090 -11.061500 -5.288140
-1.932100 -11.068200 -5.478260
-1.977090 -11.292600 -4.981840
-2.484890 -11.280800 -4.777000
-2.005810 -11.499200 -4.471460
-2.519360 -11.481500 -4.251900
-2.026190 -11.687000 -3.944510
-1.522350 -11.862300 -3.635710
-1.476540 -11.282600 -5.174300
-1.498660 -11.494000 -4.678810
-1.512310 -11.687700 -4.166450
-1.007830 -11.844900 -3.864120
-0.998911 -11.465000 -4.879110
-1.004950 -11.663900 -4.381000
-0.500049 -11.800600 -4.092220
-0.505056 -11.613300 -4.596300
-4.483970 -10.834500 -4.330970
-4.406020 -10.628500 -4.885840
-2.939140 -11.040100 -5.072170
-3.373720 -10.772300 -5.368990
-3.449260 -10.996200 -4.841100
-3.887850 -10.712600 -5.135710
-3.964590 -10.928100 -4.594400
-4.025450 -11.123200 -4.039770
-2.992490 -11.252800 -4.546470
-3.506290 -11.200700 -4.301110
-3.551910 -11.384300 -3.745720
-3.032410 -11.445600 -4.006470
-2.071090 -11.997000 -2.834110
-1.544440 -12.014000 -3.086860
-1.564220 -12.143600 -2.517260
-1.037190 -12.143800 -2.775110
-1.049430 -12.260000 -2.200490
-0.521993 -12.243100 -2.466750
-0.527797 -12.345600 -1.885920
-1.023470 -12.004800 -3.329560
-0.515677 -12.116700 -3.028040
-0.508347 -11.968600 -3.569860
-2.158150 -12.308100 -0.320586
-2.606840 -11.956800 -2.547590
-2.100120 -12.119200 -2.227940
-2.639820 -12.065200 -1.926570
-2.125490 -12.213200 -1.602870
-2.666410 -12.143900 -1.290550
-2.145610 -12.276600 -0.964835
-1.619100 -12.378200 -0.639262
-1.585740 -12.251600 -1.906460
-1.604660 -12.330500 -1.278410
-1.077740 -12.416800 -0.954442
-1.064560 -12.353300 -1.585210
-0.537167 -12.424200 -1.265540
-4.779060 -11.479100 -1.281050
-3.111790 -11.763900 -2.859660
-3.153490 -11.885800 -2.243400
-3.658240 -11.676200 -2.555990
-3.701170 -11.782800 -1.928100
-4.203910 -11.556600 -2.240790
-4.244640 -11.647000 -1.606210
-4.272520 -11.707500 -0.963806
-3.187790 -11.978900 -1.610810
-3.733420 -11.859600 -1.288850
-3.753760 -11.905700 -0.643190
-3.212390 -12.041300 -0.968269
-5.022250 -10.711000 -4.037460
-3.608200 -11.543200 -3.159990
-4.093400 -11.293700 -3.456290
-4.565220 -11.016200 -3.748740
-5.103210 -10.879200 -3.442310
-4.153050 -11.438800 -2.855990
-4.635110 -11.172900 -3.151340
-5.171590 -11.021300 -2.834810
-4.694700 -11.303000 -2.540250
-7.069920 -9.928860 -2.771940
-7.001959 -9.789200 -3.375540
-5.553800 -10.557400 -3.734560
-5.990090 -10.207900 -4.020840
-6.076390 -10.374500 -3.420000
-6.505850 -10.010900 -3.702070
-6.583810 -10.164000 -3.097970
-6.647540 -10.289300 -2.487870
-5.631440 -10.711600 -3.130170
-6.147960 -10.514300 -2.810940
-6.205950 -10.626200 -2.195550
-5.695570 -10.838600 -2.517010
-2.158150 -12.308100 0.320599
-1.622950 -12.394200 0.000000
-1.619100 -12.378200 0.639262
-1.083240 -12.448900 0.319231
-1.077740 -12.416800 0.954442
-0.541142 -12.472000 0.636585
-0.537167 -12.424200 1.265550
-1.083240 -12.448900 -0.319231
-0.542734 -12.488200 0.000000
-0.541142 -12.472000 -0.636585
-2.071090 -11.997000 2.834110
-2.684590 -12.191200 0.646600
-2.145610 -12.276600 0.964835
-2.666410 -12.143900 1.290550
-2.125490 -12.213200 1.602870
-2.639820 -12.065200 1.926570
-2.100110 -12.119200 2.227940
-1.564220 -12.143600 2.517260
-1.604660 -12.330500 1.278400
-1.585740 -12.251600 1.906460
-1.049430 -12.259900 2.200500
-1.064560 -12.353300 1.585210
-0.527797 -12.345600 1.885920
-4.742900 -11.405000 1.918700
-3.226340 -12.072200 0.321429
-3.212390 -12.041300 0.968269
-3.753760 -11.905700 0.643190
-3.733420 -11.859600 1.288850
-4.272520 -11.707500 0.963806
-4.244620 -11.647000 1.606220
-4.203910 -11.556600 2.240790
-3.187790 -11.978900 1.610810
-3.701170 -11.782800 1.928110
-3.658240 -11.676200 2.555990
-3.153490 -11.885800 2.243400
-5.299120 -11.280400 -0.959640
-3.759400 -11.921300 0.000000
-4.284720 -11.738300 -0.321827
-4.798920 -11.524200 -0.642450
-5.313220 -11.310000 -0.320616
-4.284720 -11.738300 0.321827
-4.805450 -11.539400 0.000000
-5.313220 -11.310000 0.320616
-4.798920 -11.524200 0.642450
-7.233870 -10.189400 0.312075
-5.789110 -11.005400 -1.272100
-5.811320 -11.048600 -0.637961
-6.292070 -10.759000 -0.950231
-6.307540 -10.787200 -0.317290
-6.775500 -10.485500 -0.629416
-6.783360 -10.499300 0.000000
-6.775500 -10.485500 0.629416
-5.818820 -11.063100 0.000000
-6.307540 -10.787200 0.317290
-6.292070 -10.759000 0.950231
-5.811320 -11.048600 0.637961
-7.535460 -9.668950 -2.445060
-6.255850 -10.706600 -1.575420
-6.703619 -10.382800 -1.872920
-7.130150 -10.036400 -2.163540
-7.585920 -9.763240 -1.839290
-6.746560 -10.448100 -1.253110
-7.178120 -10.115500 -1.549820
-7.624940 -9.828600 -1.228460
-7.213089 -10.166200 -0.932047
-9.056440 -8.532340 -1.195910
-9.038640 -8.450940 -1.770500
-7.955870 -9.403570 -2.127640
-8.309750 -9.023550 -2.402810
-8.348750 -9.124750 -1.813060
-8.687210 -8.742710 -2.085070
-8.715300 -8.833840 -1.502300
-8.737190 -8.892600 -0.912866
-7.996521 -9.485610 -1.525990
-8.379820 -9.194970 -1.216920
-8.402070 -9.234470 -0.616192
-8.027050 -9.537860 -0.919619
-2.042790 -11.854300 3.398860
-1.544440 -12.014000 3.086860
-1.522340 -11.862300 3.635710
-1.023470 -12.004800 3.329560
-1.007830 -11.844900 3.864140
-0.508360 -11.968600 3.569860
-0.500049 -11.800600 4.092220
-1.037190 -12.143800 2.775120
-0.515679 -12.116700 3.028040
-0.521993 -12.243100 2.466750
-1.932100 -11.068200 5.478260
-2.546160 -11.662000 3.709960
-2.026190 -11.687000 3.944510
-2.519360 -11.481500 4.251900
-2.005810 -11.499200 4.471460
-2.484890 -11.280800 4.777000
-1.977100 -11.292600 4.981840
-1.476540 -11.282600 5.174310
-1.512300 -11.687700 4.166450
-1.498650 -11.494000 4.678810
-0.998911 -11.465000 4.879110
-1.004950 -11.663900 4.381000
-0.505056 -11.613300 4.596310
-3.065660 -11.617100 3.448790
-3.032410 -11.445600 4.006470
-3.551910 -11.384300 3.745720
-3.506290 -11.200700 4.301110
-4.025450 -11.123200 4.039770
-3.964590 -10.928100 4.594400
-3.887850 -10.712600 5.135710
-2.992490 -11.252800 4.546470
-3.449270 -10.996200 4.841100
-3.373720 -10.772300 5.368990
-2.939140 -11.040100 5.072170
-5.227790 -11.135600 2.217720
-3.608200 -11.543200 3.159990
-4.153050 -11.438800 2.855970
-4.694700 -11.303000 2.540250
-5.171590 -11.021300 2.834810
-4.093400 -11.293700 3.456290
-4.635120 -11.172900 3.151320
-5.103210 -10.879200 3.442310
-4.565220 -11.016200 3.748740
-5.746510 -10.937500 1.897120
-5.695570 -10.838600 2.517010
-6.205940 -10.626200 2.195560
-6.147960 -10.514300 2.810940
-6.647520 -10.289300 2.487870
-6.583800 -10.164000 3.097970
-6.505850 -10.010900 3.702070
-5.631440 -10.711600 3.130170
-6.076390 -10.374500 3.419990
-5.990090 -10.207900 4.020840
-5.553800 -10.557400 3.734560
-7.651350 -9.865550 0.614671
-6.255850 -10.706600 1.575410
-6.746560 -10.448100 1.253100
-7.213089 -10.166200 0.932035
-7.624940 -9.828600 1.228460
-6.703619 -10.382800 1.872920
-7.178120 -10.115500 1.549820
-7.585920 -9.763240 1.839270
-7.130140 -10.036400 2.163520
-8.045640 -9.561420 0.311105
-8.027050 -9.537860 0.919619
-8.402070 -9.234470 0.616192
-8.379820 -9.194990 1.216920
-8.737190 -8.892600 0.912866
-8.715290 -8.833850 1.502300
-8.687210 -8.742710 2.085060
-7.996521 -9.485610 1.525990
-8.348750 -9.124750 1.813050
-8.309750 -9.023560 2.402810
-7.955870 -9.403570 2.127640
-9.369070 -8.227550 -0.881961
-8.408520 -9.249140 0.000000
-8.747290 -8.924240 -0.305015
-9.065710 -8.584970 -0.600818
-9.371110 -8.267110 -0.295185
-8.747290 -8.924240 0.305015
-9.069140 -8.602360 0.000000
-9.371100 -8.267120 0.295185
-9.065710 -8.584970 0.600818
-10.444600 -6.862660 -0.251866
-9.673590 -7.895650 -0.574919
-9.963670 -7.502310 -0.830900
-9.954960 -7.554570 -0.277565
-10.225500 -7.170260 -0.525669
-10.218200 -7.199850 0.000000
-10.225500 -7.170250 0.525669
-9.672090 -7.918390 0.000000
-9.954960 -7.554570 0.277565
-9.963670 -7.502310 0.830900
-9.673590 -7.895650 0.574919
-1.423640 -11.046800 5.673660
-1.344420 -10.794600 6.157890
-0.925595 -11.003500 5.858020
-0.850545 -10.751200 6.319710
-0.442321 -10.933900 6.041840
-0.407540 -10.696500 6.455140
0.000000 -10.852200 6.203260
0.000000 -11.076000 5.794050
-0.970357 -11.242100 5.377960
-0.476492 -11.175000 5.580450
-0.493395 -11.402200 5.098750
-7.015260 -3.808690 -9.619250
-8.032270 -2.005010 -9.365500
-7.722500 -1.699150 -9.681210
-7.580020 -2.226860 -9.686810
-7.884750 -2.543570 -9.360060
-7.411941 -2.751960 -9.681940
-7.712140 -3.079390 -9.342920
-7.222950 -3.278440 -9.660790
-6.715110 -3.460220 -9.959120
-7.268200 -1.911460 -9.988470
-7.103700 -2.424890 -9.995360
-6.918420 -2.940470 -9.986950
-6.407710 -3.107760 -10.272900
-6.790569 -2.093900 -10.283700
-6.607870 -2.598190 -10.287600
-9.141150 -3.299040 -7.861650
-8.325490 -2.324850 -9.029470
-8.609070 -2.647440 -8.667460
-8.881570 -2.972240 -8.278490
-8.713810 -3.537300 -8.234500
-8.171510 -2.872940 -9.012360
-8.448420 -3.204200 -8.637550
-8.264370 -3.759420 -8.591670
-7.993410 -3.418590 -8.981570
-6.799890 -4.345670 -9.546020
-6.505420 -3.986940 -9.901200
-6.276690 -4.518650 -9.820120
-5.979310 -4.147310 -10.163500
-5.737790 -4.674020 -10.073800
-5.438990 -4.287200 -10.406100
-5.135700 -3.887850 -10.712600
-6.202490 -3.625020 -10.229300
-5.675490 -3.767970 -10.480500
-5.368990 -3.373720 -10.772300
-5.894700 -3.253310 -10.531800
-5.709700 -6.561600 -8.977450
-7.077610 -4.722900 -9.157050
-6.558050 -4.906150 -9.443070
-6.827300 -5.289720 -9.036410
-6.295090 -5.466670 -9.313290
-6.555110 -5.851840 -8.890240
-6.011950 -6.020770 -9.157340
-5.454600 -6.172260 -9.402160
-6.022050 -5.073440 -9.707990
-5.747720 -5.626850 -9.568290
-5.186150 -5.769290 -9.801490
-5.471220 -5.223160 -9.951600
-8.054100 -6.179950 -7.293120
-7.582560 -4.530020 -8.844970
-7.345840 -5.102450 -8.732320
-7.845720 -4.900720 -8.406990
-7.599450 -5.475240 -8.277690
-8.092620 -5.264570 -7.940001
-7.836210 -5.835710 -7.796690
-7.556270 -6.394320 -7.633171
-7.086060 -5.671340 -8.594990
-7.329650 -6.040790 -8.126200
-7.037510 -6.592470 -7.953790
-6.803970 -6.230000 -8.434620
-9.391700 -3.641090 -7.401910
-8.066140 -4.330110 -8.511020
-8.529740 -4.115590 -8.158160
-8.971900 -3.886010 -7.788060
-9.211610 -4.231700 -7.313610
-8.322650 -4.692210 -8.060190
-8.778190 -4.469320 -7.695350
-9.007070 -4.815320 -7.206610
-8.561040 -5.047110 -7.581911
-10.173800 -4.906620 -5.354240
-9.622810 -3.973590 -6.918250
-9.831810 -4.298150 -6.411810
-10.016200 -4.610170 -5.888240
-9.801490 -5.186150 -5.769290
-9.431090 -4.563660 -6.817451
-9.628390 -4.882890 -6.300920
-9.402160 -5.454600 -6.172260
-9.215640 -5.143010 -6.698610
-5.389110 -7.080319 -8.779320
-5.143010 -6.698610 -9.215640
-4.815320 -7.206610 -9.007070
-4.563660 -6.817451 -9.431090
-4.231700 -7.313620 -9.211600
-3.973590 -6.918250 -9.622810
-3.702070 -6.505850 -10.010900
-4.882890 -6.300920 -9.628390
-4.298150 -6.411810 -9.831810
-4.020840 -5.990090 -10.207900
-4.610170 -5.888250 -10.016200
-3.965770 -8.931360 -7.794449
-5.615860 -7.448289 -8.320760
-5.047110 -7.581911 -8.561020
-5.264570 -7.940001 -8.092620
-4.692220 -8.060190 -8.322650
-4.900720 -8.406990 -7.845720
-4.330110 -8.511040 -8.066120
-3.759420 -8.591670 -8.264370
-4.469320 -7.695350 -8.778190
-4.115600 -8.158160 -8.529720
-3.537290 -8.234510 -8.713800
-3.886010 -7.788070 -8.971890
-6.402061 -8.720390 -6.262460
-6.179960 -7.293120 -8.054100
-5.835710 -7.796670 -7.836210
-6.394320 -7.633171 -7.556270
-6.040800 -8.126200 -7.329640
-6.592470 -7.953790 -7.037510
-6.230000 -8.434640 -6.803970
-5.851840 -8.890240 -6.555110
-5.475240 -8.277690 -7.599450
-5.671340 -8.594990 -7.086060
-5.289720 -9.036410 -6.827300
-5.102450 -8.732340 -7.345840
-8.252750 -6.501390 -6.773040
-6.725300 -7.122360 -7.764811
-7.254660 -6.932840 -7.453560
-7.764811 -6.725300 -7.122360
-7.953790 -7.037510 -6.592470
-6.932840 -7.453560 -7.254660
-7.453560 -7.254660 -6.932840
-7.633171 -7.556270 -6.394320
-7.122360 -7.764811 -6.725300
-8.844990 -7.582560 -4.530010
-8.720390 -6.262460 -6.402061
-8.434640 -6.803970 -6.229990
-8.890240 -6.555110 -5.851840
-8.594990 -7.086060 -5.671340
-9.036410 -6.827300 -5.289720
-8.732340 -7.345840 -5.102440
-8.406990 -7.845709 -4.900740
-8.126200 -7.329640 -6.040800
-8.277700 -7.599440 -5.475240
-7.940010 -8.092620 -5.264560
-7.796690 -7.836210 -5.835710
-10.306700 -5.184960 -4.810170
-9.157340 -6.011950 -6.020770
-9.568290 -5.747720 -5.626850
-9.951600 -5.471220 -5.223160
-10.073800 -5.737790 -4.674020
-9.313290 -6.295090 -5.466670
-9.707990 -6.022050 -5.073440
-9.820120 -6.276690 -4.518650
-9.443070 -6.558050 -4.906140
-10.561400 -6.097240 -2.744140
-10.406100 -5.438990 -4.287200
-10.480500 -5.675490 -3.767970
-10.531800 -5.894700 -3.253310
-10.272900 -6.407710 -3.107760
-10.163500 -5.979310 -4.147310
-10.229300 -6.202490 -3.625020
-9.959140 -6.715099 -3.460220
-9.901200 -6.505420 -3.986940
-3.616400 -9.308150 -7.518650
-3.418590 -8.981570 -7.993410
-3.079390 -9.342920 -7.712140
-2.872940 -9.012360 -8.171510
-2.543570 -9.360060 -7.884750
-2.324850 -9.029470 -8.325490
-2.085070 -8.687210 -8.742710
-3.204200 -8.637560 -8.448410
-2.647440 -8.667460 -8.609070
-2.402820 -8.309750 -9.023550
-2.972240 -8.278470 -8.881590
-2.244240 -10.563200 -6.295461
-3.808670 -9.619260 -7.015260
-3.278440 -9.660790 -7.222950
-3.460220 -9.959140 -6.715099
-2.940470 -9.986950 -6.918420
-3.107760 -10.272900 -6.407710
-2.598190 -10.287600 -6.607870
-2.093890 -10.283700 -6.790569
-2.751960 -9.681940 -7.411941
-2.424870 -9.995370 -7.103700
-1.911460 -9.988470 -7.268200
-2.226860 -9.686810 -7.580020
-4.345670 -9.546020 -6.799890
-3.986920 -9.901200 -6.505420
-4.518650 -9.820120 -6.276690
-4.147310 -10.163500 -5.979310
-4.674020 -10.073800 -5.737790
-4.287200 -10.406100 -5.438990
-3.625020 -10.229300 -6.202490
-3.767970 -10.480500 -5.675490
-3.253310 -10.531800 -5.894700
-6.561600 -8.977460 -5.709690
-4.906140 -9.443070 -6.558050
-5.466670 -9.313290 -6.295090
-6.020770 -9.157340 -6.011950
-6.172260 -9.402160 -5.454600
-5.073420 -9.707990 -6.022060
-5.626850 -9.568290 -5.747720
-5.769290 -9.801490 -5.186150
-5.223150 -9.951600 -5.471220
-7.080319 -8.779320 -5.389100
-6.698610 -9.215640 -5.143010
-7.206610 -9.007070 -4.815320
-6.817451 -9.431090 -4.563660
-7.313620 -9.211610 -4.231700
-6.918250 -9.622810 -3.973590
-6.300910 -9.628390 -4.882890
-6.411810 -9.831810 -4.298150
-5.888240 -10.016200 -4.610170
-8.931360 -7.794449 -3.965770
-7.581911 -8.561020 -5.047110
-8.060190 -8.322650 -4.692210
-8.511020 -8.066140 -4.330110
-8.591670 -8.264370 -3.759420
-7.695350 -8.778190 -4.469320
-8.158160 -8.529720 -4.115590
-8.234500 -8.713810 -3.537300
-7.788070 -8.971890 -3.886010
-9.308150 -7.518650 -3.616400
-8.981570 -7.993410 -3.418590
-9.342920 -7.712140 -3.079390
-9.012360 -8.171510 -2.872940
-9.360060 -7.884750 -2.543570
-9.029470 -8.325490 -2.324850
-8.637550 -8.448410 -3.204210
-8.667460 -8.609070 -2.647440
-8.278470 -8.881590 -2.972240
-10.563200 -6.295461 -2.244240
-9.660790 -7.222950 -3.278440
-9.986950 -6.918420 -2.940470
-10.287600 -6.607870 -2.598190
-10.283700 -6.790569 -2.093900
-9.681940 -7.411941 -2.751960
-9.995360 -7.103700 -2.424890
-9.988470 -7.268200 -1.911460
-9.686810 -7.580020 -2.226860
-10.819600 -5.980600 -1.849050
-10.553400 -6.472001 -1.728570
-10.794600 -6.157890 -1.344420
-10.527000 -6.628990 -1.220070
-10.751200 -6.319710 -0.850545
-10.491600 -6.757520 -0.715694
-10.271800 -6.948020 -1.570070
-10.249400 -7.078100 -1.048520
-9.978520 -7.402240 -1.373260
-0.251866 -10.444600 -6.862670
0.000000 -10.633100 -6.571640
-0.407527 -10.696500 -6.455140
-1.849050 -10.819600 -5.980600
-1.728570 -10.553400 -6.472001
-1.344420 -10.794600 -6.157890
-1.220070 -10.527000 -6.628990
-0.850545 -10.751200 -6.319719
-0.715692 -10.491600 -6.757540
-0.525669 -10.225500 -7.170250
-1.570070 -10.271800 -6.948020
-1.048520 -10.249400 -7.078100
-0.830901 -9.963670 -7.502320
-1.373260 -9.978520 -7.402240
-9.308150 -7.518650 3.616400
-10.561400 -6.097250 2.744140
-10.563200 -6.295461 2.244240
-10.287600 -6.607870 2.598190
-10.272900 -6.407710 3.107760
-9.986940 -6.918420 2.940460
-9.959120 -6.715110 3.460220
-9.660790 -7.222950 3.278440
-9.342920 -7.712140 3.079390
-10.283700 -6.790569 2.093900
-9.995360 -7.103700 2.424890
-9.681920 -7.411941 2.751970
-9.360060 -7.884770 2.543570
-9.988470 -7.268200 1.911460
-9.686810 -7.580020 2.226860
-10.306700 -5.184960 4.810160
-10.531800 -5.894700 3.253310
-10.480500 -5.675490 3.767970
-10.406100 -5.438990 4.287200
-10.073800 -5.737790 4.674020
-10.229300 -6.202490 3.625020
-10.163500 -5.979310 4.147320
-9.820120 -6.276690 4.518650
-9.901200 -6.505420 3.986940
-8.931360 -7.794449 3.965770
-8.981560 -7.993420 3.418590
-8.591660 -8.264390 3.759410
-8.637550 -8.448420 3.204200
-8.234500 -8.713820 3.537270
-8.278470 -8.881590 2.972240
-9.012360 -8.171510 2.872940
-8.667460 -8.609070 2.647440
-9.029470 -8.325490 2.324850
-7.080319 -8.779320 5.389100
-8.844990 -7.582560 4.530010
-8.511040 -8.066140 4.330100
-8.406990 -7.845720 4.900720
-8.060170 -8.322660 4.692210
-7.940010 -8.092620 5.264560
-7.581900 -8.561050 5.047100
-7.206610 -9.007070 4.815320
-8.158160 -8.529720 4.115590
-7.695350 -8.778200 4.469310
-7.313610 -9.211610 4.231690
-7.788060 -8.971900 3.886010
-8.252750 -6.501390 6.773040
-9.157050 -7.077610 4.722900
-8.732320 -7.345840 5.102450
-9.036410 -6.827300 5.289720
-8.594990 -7.086060 5.671340
-8.890240 -6.555120 5.851840
-8.434620 -6.803970 6.230000
-7.953790 -7.037510 6.592470
-8.277690 -7.599450 5.475240
-8.126190 -7.329660 6.040790
-7.633171 -7.556290 6.394310
-7.796670 -7.836220 5.835710
-10.173800 -4.906620 5.354240
-9.443070 -6.558050 4.906140
-9.707990 -6.022060 5.073440
-9.951600 -5.471220 5.223150
-9.801490 -5.186150 5.769290
-9.313290 -6.295100 5.466660
-9.568290 -5.747740 5.626850
-9.402160 -5.454600 6.172260
-9.157340 -6.011950 6.020770
-9.391700 -3.641090 7.401910
-10.016200 -4.610170 5.888240
-9.831810 -4.298150 6.411810
-9.622810 -3.973590 6.918250
-9.211600 -4.231700 7.313620
-9.628390 -4.882890 6.300910
-9.431090 -4.563660 6.817451
-9.007070 -4.815340 7.206600
-9.215640 -5.143010 6.698610
-6.561590 -8.977460 5.709700
-6.698610 -9.215640 5.143010
-6.172250 -9.402170 5.454590
-6.300910 -9.628390 4.882890
-5.769290 -9.801490 5.186150
-5.888240 -10.016200 4.610160
-6.817451 -9.431090 4.563660
-6.411810 -9.831810 4.298140
-6.918250 -9.622810 3.973570
-4.345670 -9.546020 6.799890
-6.402061 -8.720390 6.262450
-6.020770 -9.157340 6.011950
-5.851840 -8.890240 6.555110
-5.466660 -9.313290 6.295090
-5.289720 -9.036410 6.827300
-4.906140 -9.443070 6.558050
-4.518650 -9.820120 6.276690
-5.626860 -9.568290 5.747720
-5.073440 -9.707990 6.022050
-4.674020 -10.073800 5.737790
-5.223150 -9.951600 5.471220
-5.615860 -7.448270 8.320770
-6.773040 -8.252750 6.501390
-6.229990 -8.434640 6.803970
-6.592470 -7.953790 7.037510
-6.040790 -8.126200 7.329650
-6.394320 -7.633171 7.556270
-5.835710 -7.796690 7.836210
-5.264570 -7.940001 8.092620
-5.671340 -8.594990 7.086060
-5.475240 -8.277700 7.599440
-4.900720 -8.406990 7.845720
-5.102440 -8.732340 7.345840
-8.054100 -6.179960 7.293120
-7.122360 -7.764811 6.725300
-7.453560 -7.254660 6.932840
-7.764811 -6.725300 7.122360
-7.556270 -6.394320 7.633171
-6.932840 -7.453560 7.254660
-7.254660 -6.932840 7.453560
-7.037510 -6.592470 7.953790
-6.725300 -7.122360 7.764811
-7.077610 -4.722890 9.157060
-8.320760 -5.615860 7.448289
-7.836210 -5.835710 7.796690
-8.092620 -5.264570 7.940001
-7.599440 -5.475240 8.277700
-7.845720 -4.900720 8.406990
-7.345840 -5.102440 8.732340
-6.827300 -5.289720 9.036410
-7.329640 -6.040800 8.126200
-7.086060 -5.671340 8.594990
-6.555110 -5.851840 8.890240
-6.803970 -6.230000 8.434640
-9.141150 -3.299050 7.861650
-8.561040 -5.047110 7.581911
-8.778190 -4.469320 7.695350
-8.971890 -3.886010 7.788070
-8.713810 -3.537300 8.234500
-8.322650 -4.692210 8.060190
-8.529720 -4.115590 8.158160
-8.264370 -3.759420 8.591670
-8.066120 -4.330110 8.511040
-8.032270 -2.005010 9.365500
-8.881590 -2.972240 8.278470
-8.609070 -2.647440 8.667460
-8.325490 -2.324850 9.029470
-7.884750 -2.543570 9.360060
-8.448410 -3.204210 8.637550
-8.171510 -2.872940 9.012360
-7.712140 -3.079390 9.342920
-7.993410 -3.418590 8.981570
-3.808670 -9.619260 7.015260
-3.986940 -9.901200 6.505420
-3.460220 -9.959140 6.715099
-3.625020 -10.229300 6.202490
-3.107760 -10.272900 6.407710
-3.253310 -10.531800 5.894700
-4.147310 -10.163500 5.979310
-3.767970 -10.480500 5.675490
-4.287200 -10.406100 5.438990
-1.699150 -9.681210 7.722500
-3.616400 -9.308150 7.518650
-3.278440 -9.660790 7.222950
-3.079390 -9.342920 7.712140
-2.751970 -9.681920 7.411941
-2.543570 -9.360060 7.884750
-2.226860 -9.686810 7.580020
-1.911460 -9.988470 7.268200
-2.940460 -9.986950 6.918420
-2.424870 -9.995370 7.103700
-2.093900 -10.283700 6.790569
-2.598190 -10.287600 6.607870
-2.723070 -7.905450 9.291860
-3.965770 -8.931360 7.794449
-3.418590 -8.981570 7.993410
-3.759420 -8.591670 8.264370
-3.204200 -8.637550 8.448420
-3.537290 -8.234510 8.713800
-2.972240 -8.278470 8.881590
-2.402820 -8.309750 9.023550
-2.872940 -9.012360 8.171510
-2.647440 -8.667460 8.609070
-2.085070 -8.687210 8.742710
-2.324850 -9.029470 8.325490
-5.389110 -7.080319 8.779320
-4.330110 -8.511040 8.066120
-4.692220 -8.060190 8.322650
-5.047110 -7.581911 8.561020
-4.815320 -7.206610 9.007070
-4.115590 -8.158160 8.529720
-4.469320 -7.695350 8.778190
-4.231710 -7.313610 9.211610
-3.886010 -7.788060 8.971900
-4.327440 -5.461750 10.377500
-5.709690 -6.561600 8.977460
-5.143010 -6.698610 9.215640
-5.454600 -6.172250 9.402160
-4.882890 -6.300910 9.628390
-5.186150 -5.769290 9.801490
-4.610170 -5.888240 10.016200
-4.020840 -5.990090 10.207900
-4.563660 -6.817451 9.431090
-4.298150 -6.411810 9.831810
-3.702070 -6.505850 10.010900
-3.973590 -6.918250 9.622810
-6.799890 -4.345670 9.546020
-6.011950 -6.020770 9.157340
-6.295090 -5.466670 9.313290
-6.558050 -4.906140 9.443070
-6.276690 -4.518650 9.820120
-5.747720 -5.626850 9.568290
-6.022060 -5.073440 9.707990
-5.737790 -4.674020 10.073800
-5.471220 -5.223150 9.951600
-5.586190 -2.864750 10.809100
-7.015260 -3.808690 9.619250
-6.505420 -3.986940 9.901200
-6.715099 -3.460220 9.959120
-6.202490 -3.625020 10.229300
-6.407710 -3.107760 10.272900
-5.894700 -3.253310 10.531800
-5.368990 -3.373720 10.772300
-5.979320 -4.147310 10.163500
-5.675490 -3.767970 10.480500
-5.135710 -3.887850 10.712600
-5.438990 -4.287200 10.406100
-7.722500 -1.699150 9.681210
-7.222950 -3.278440 9.660790
-7.411941 -2.751970 9.681920
-7.580020 -2.226860 9.686810
-7.268200 -1.911460 9.988470
-6.918420 -2.940470 9.986950
-7.103700 -2.424890 9.995360
-6.790569 -2.093900 10.283700
-6.607870 -2.598190 10.287600
-6.455140 -0.407527 10.696500
-7.402240 -1.373260 9.978520
-7.078100 -1.048520 10.249400
-6.757540 -0.715692 10.491600
-6.319710 -0.850545 10.751200
-6.948020 -1.570060 10.271800
-6.628990 -1.220070 10.527000
-6.157890 -1.344420 10.794600
-6.472001 -1.728570 10.553400
0.000000 -10.633100 6.571640
-0.251866 -10.444600 6.862670
-1.142770 -9.676810 7.829650
-1.373260 -9.978520 7.402240
-0.830900 -9.963670 7.502310
-1.048520 -10.249400 7.078100
-0.525669 -10.225500 7.170260
-0.715692 -10.491600 6.757540
-1.570060 -10.271800 6.948040
-1.220070 -10.527000 6.628990
-1.728570 -10.553400 6.472001
-0.311105 -8.045640 -9.561420
0.000000 -7.663711 -9.875100
0.000000 -8.048140 -9.564390
0.000000 -8.408520 -9.249140
-0.616205 -8.402070 -9.234470
0.000000 -8.749890 -8.926900
-0.305015 -8.747290 -8.924240
-0.912866 -8.737190 -8.892600
0.000000 -9.069150 -8.602360
0.000000 -9.373720 -8.269410
-0.295185 -9.371110 -8.267110
-0.600830 -9.065710 -8.584970
-0.614671 -7.651350 -9.865550
-0.919630 -8.027060 -9.537850
-1.228460 -7.624940 -9.828600
-1.526000 -7.996521 -9.485610
-1.839290 -7.585920 -9.763240
-2.127650 -7.955870 -9.403570
-1.216930 -8.379820 -9.194970
-1.813060 -8.348750 -9.124750
-1.502300 -8.715300 -8.833840
-1.897120 -5.746510 -10.937500
-0.312075 -7.233870 -10.189400
-0.932047 -7.213089 -10.166200
-0.629416 -6.775500 -10.485500
-1.253110 -6.746560 -10.448100
-0.950231 -6.292070 -10.759000
-1.575410 -6.255850 -10.706600
-2.195550 -6.205950 -10.626200
-1.549820 -7.178120 -10.115500
-1.872920 -6.703619 -10.382800
-2.487870 -6.647520 -10.289300
-2.163540 -7.130150 -10.036400
-0.320604 -5.313220 -11.310000
0.000000 -5.314970 -11.313700
0.000000 -5.818820 -11.063100
-0.317290 -6.307540 -10.787200
-0.637949 -5.811310 -11.048600
-2.217710 -5.227790 -11.135600
-2.517000 -5.695570 -10.838600
-2.834810 -5.171590 -11.021300
-3.130170 -5.631440 -10.711600
-3.442310 -5.103210 -10.879200
-3.734560 -5.553800 -10.557400
-2.810940 -6.147960 -10.514300
-3.419990 -6.076390 -10.374500
-3.097970 -6.583810 -10.164000
-3.448770 -3.065660 -11.617100
-1.918690 -4.742900 -11.405000
-2.540250 -4.694700 -11.303000
-2.240770 -4.203910 -11.556600
-2.855970 -4.153050 -11.438800
-2.555990 -3.658240 -11.676200
-3.159970 -3.608200 -11.543200
-3.745720 -3.551910 -11.384300
-3.151320 -4.635120 -11.172900
-3.456270 -4.093400 -11.293700
-4.039770 -4.025450 -11.123200
-3.748740 -4.565220 -11.016200
-0.646600 -2.684590 -12.191200
-1.281040 -4.779060 -11.479100
-1.606210 -4.244620 -11.647000
-0.963806 -4.272520 -11.707500
-1.288850 -3.733420 -11.859600
-0.643190 -3.753760 -11.905700
-0.968269 -3.212390 -12.041300
-1.290550 -2.666410 -12.143900
-1.928100 -3.701170 -11.782800
-1.610810 -3.187790 -11.978900
-1.926570 -2.639820 -12.065200
-2.243390 -3.153490 -11.885800
-0.642437 -4.798920 -11.524200
0.000000 -4.805450 -11.539400
-0.321815 -4.284720 -11.738300
0.000000 -3.759410 -11.921300
-3.709960 -2.546160 -11.662000
-4.006470 -3.032410 -11.445600
-4.251900 -2.519360 -11.481500
-4.546470 -2.992490 -11.252800
-4.777000 -2.484890 -11.280800
-5.072170 -2.939140 -11.040100
-4.301100 -3.506290 -11.200700
-4.841100 -3.449270 -10.996200
-4.594390 -3.964590 -10.928100
-4.596300 -0.505056 -11.613300
-3.398850 -2.042790 -11.854300
-3.944500 -2.026190 -11.687000
-3.635710 -1.522350 -11.862300
-4.166440 -1.512310 -11.687800
-3.864120 -1.007830 -11.844900
-4.381000 -1.004950 -11.663900
-4.879110 -0.998911 -11.465000
-4.471460 -2.005810 -11.499200
-4.678810 -1.498660 -11.494000
-5.174310 -1.476540 -11.282600
-4.981840 -1.977100 -11.292600
-2.834110 -2.071090 -11.997000
-3.086850 -1.544440 -12.014000
-2.517260 -1.564220 -12.143600
-2.775110 -1.037190 -12.143800
-2.200490 -1.049430 -12.260000
-2.466750 -0.521993 -12.243100
-2.732890 -0.000000 -12.197600
-3.329550 -1.023470 -12.004900
-3.028040 -0.515677 -12.116700
-3.283900 -0.000000 -12.060900
-3.569860 -0.508360 -11.968600
-0.320599 -2.158150 -12.308100
-2.227940 -2.100120 -12.119200
-1.602870 -2.125490 -12.213200
-0.964835 -2.145620 -12.276600
-0.639275 -1.619100 -12.378200
-1.906460 -1.585740 -12.251600
-1.278410 -1.604660 -12.330500
-0.954442 -1.077740 -12.416800
-1.585200 -1.064560 -12.353300
0.000000 -1.622950 -12.394200
-0.319231 -1.083240 -12.448900
-0.318750 -0.000000 -12.495900
0.000000 -0.000000 -12.500000
0.000000 -0.542734 -12.488200
-0.636585 -0.541155 -12.472000
-6.203260 -0.000000 -10.852200
-5.098750 -0.493395 -11.402200
-5.326990 -0.000000 -11.308100
-5.580450 -0.476480 -11.175000
-5.794050 -0.000000 -11.076000
-6.041840 -0.442321 -10.933900
-6.319719 -0.850545 -10.751200
-5.377960 -0.970357 -11.242100
-5.858020 -0.925595 -11.003500
-6.157890 -1.344420 -10.794600
-5.673660 -1.423640 -11.046800
-1.195910 -9.056440 8.532340
-0.881961 -9.369070 8.227550
-0.600818 -9.065710 8.584970
-0.912866 -8.737190 8.892600
-0.305002 -8.747290 8.924240
-0.616192 -8.402070 9.234470
0.000000 -8.408520 9.249140
-0.311105 -8.045640 9.561420
-0.295185 -9.371110 8.267110
0.000000 -9.069140 8.602360
0.000000 -8.749890 8.926900
-2.445060 -7.535460 9.668950
-1.502300 -8.715300 8.833840
-1.813060 -8.348750 9.124750
-2.127640 -7.955870 9.403570
-1.839290 -7.585920 9.763240
-1.216920 -8.379820 9.194970
-1.525990 -7.996521 9.485610
-1.228460 -7.624940 9.828600
-0.919617 -8.027060 9.537850
-0.614671 -7.651350 9.865550
-0.959640 -5.299120 11.280400
-0.312075 -7.233870 10.189400
0.000000 -7.663711 9.875100
0.000000 -7.236120 10.192600
0.000000 -6.783360 10.499300
-0.629416 -6.775500 10.485500
-0.317302 -6.307540 10.787200
-0.950244 -6.292070 10.759000
-0.637974 -5.811310 11.048600
-0.320629 -5.313220 11.310000
0.000000 -6.309560 10.790700
0.000000 -5.818820 11.063100
-2.771940 -7.069920 9.928860
-0.932047 -7.213089 10.166200
-1.549820 -7.178120 10.115500
-2.163540 -7.130150 10.036400
-2.487870 -6.647520 10.289300
-1.253110 -6.746560 10.448100
-1.872920 -6.703619 10.382800
-2.195570 -6.205950 10.626200
-1.575420 -6.255850 10.706600
-4.037460 -5.022250 10.711000
-3.097990 -6.583800 10.163900
-3.420000 -6.076400 10.374500
-3.734570 -5.553790 10.557400
-3.442320 -5.103200 10.879200
-2.810950 -6.147960 10.514300
-3.130190 -5.631440 10.711600
-2.834820 -5.171590 11.021300
-2.517010 -5.695570 10.838600
-1.281070 -4.779060 11.479100
0.000000 -5.314970 11.313700
0.000000 -4.805450 11.539400
-0.642462 -4.798910 11.524200
-0.963819 -4.272520 11.707500
0.000000 -4.286150 11.742200
-0.321827 -4.284720 11.738300
-0.643190 -3.753760 11.905700
0.000000 -3.759410 11.921300
-0.321416 -3.226340 12.072200
0.000000 -3.227400 12.076200
-2.547590 -2.606820 11.956800
-1.918710 -4.742890 11.405000
-1.606220 -4.244620 11.647000
-2.240790 -4.203910 11.556600
-1.928110 -3.701170 11.782800
-2.555990 -3.658240 11.676200
-2.243400 -3.153490 11.885800
-1.926570 -2.639820 12.065200
-1.288850 -3.733420 11.859600
-1.610810 -3.187790 11.978900
-1.290540 -2.666410 12.143900
-0.968256 -3.212390 12.041300
-0.646587 -2.684590 12.191200
-4.330970 -4.483970 10.834500
-2.540260 -4.694700 11.302900
-3.151340 -4.635120 11.172900
-3.748740 -4.565220 11.016200
-4.039770 -4.025450 11.123200
-2.855990 -4.153050 11.438800
-3.456290 -4.093400 11.293700
-3.745720 -3.551910 11.384300
-3.159990 -3.608200 11.543200
-5.288140 -2.435090 11.061500
-4.594400 -3.964590 10.928100
-4.841100 -3.449260 10.996200
-5.072170 -2.939140 11.040100
-4.777000 -2.484890 11.280800
-4.301110 -3.506290 11.200700
-4.546470 -2.992490 11.252800
-4.251900 -2.519360 11.481500
-4.006470 -3.032410 11.445600
-0.320586 -2.158150 12.308100
0.000000 -2.693050 12.206400
0.000000 -2.158860 12.312200
0.000000 -1.622950 12.394200
-0.639262 -1.619100 12.378200
-0.319231 -1.083240 12.448900
-0.954442 -1.077740 12.416800
-0.636585 -0.541142 12.472000
-0.318764 0.000000 12.495900
0.000000 -1.083590 12.452900
0.000000 -0.542734 12.488200
-2.834110 -2.071090 11.997000
-0.964822 -2.145620 12.276600
-1.602860 -2.125490 12.213200
-2.227940 -2.100120 12.119200
-2.517260 -1.564220 12.143600
-1.278400 -1.604660 12.330500
-1.906450 -1.585740 12.251600
-2.200490 -1.049430 12.260000
-1.585200 -1.064560 12.353300
-3.398850 -2.042790 11.854300
-3.086850 -1.544440 12.014000
-3.635710 -1.522350 11.862300
-3.329550 -1.023470 12.004900
-3.864120 -1.007830 11.844900
-3.569850 -0.508361 11.968600
-3.283900 0.000000 12.060900
-2.775110 -1.037190 12.143800
-3.028040 -0.515677 12.116700
-2.732890 0.000000 12.197600
-2.466750 -0.521993 12.243100
-5.478260 -1.932100 11.068200
-3.944500 -2.026190 11.687000
-4.471460 -2.005810 11.499200
-4.981840 -1.977100 11.292600
-5.174310 -1.476540 11.282600
-4.166440 -1.512310 11.687800
-4.678810 -1.498660 11.494000
-4.879110 -0.998911 11.465000
-4.381000 -1.004950 11.663900
-6.203260 0.000000 10.852200
-5.673660 -1.423640 11.046800
-5.858020 -0.925595 11.003500
-6.041840 -0.442321 10.933900
-5.794050 0.000000 11.076000
-5.377960 -0.970357 11.242100
-5.580450 -0.476480 11.175000
-5.326990 0.000000 11.308100
-5.098750 -0.493407 11.402200
-0.311117 8.045640 9.561420
0.000000 7.663711 9.875100
0.000000 8.048140 9.564390
0.000000 8.408520 9.249140
-0.616205 8.402070 9.234470
0.000000 8.749890 8.926900
-0.305015 8.747290 8.924240
-0.912866 8.737190 8.892600
0.000000 9.069140 8.602360
0.000000 9.373720 8.269410
-0.295185 9.371110 8.267110
-0.600830 9.065710 8.584970
-0.614671 7.651350 9.865550
-0.919630 8.027060 9.537850
-1.228460 7.624940 9.828600
-1.526000 7.996521 9.485610
-1.839290 7.585920 9.763240
-2.127650 7.955870 9.403570
-1.216930 8.379820 9.194970
-1.813060 8.348750 9.124760
-1.502300 8.715300 8.833840
-1.897140 5.746510 10.937500
-0.312087 7.233870 10.189400
-0.932049 7.213089 10.166200
-0.629416 6.775500 10.485500
-1.253110 6.746560 10.448100
-0.950231 6.292070 10.759000
-1.575420 6.255850 10.706600
-2.195570 6.205950 10.626200
-1.549820 7.178120 10.115500
-1.872920 6.703619 10.382800
-2.487870 6.647520 10.289300
-2.163540 7.130150 10.036400
-0.320616 5.313220 11.310000
0.000000 5.314970 11.313700
0.000000 5.818820 11.063100
-0.317290 6.307540 10.787200
-0.637961 5.811310 11.048600
-2.217720 5.227790 11.135600
-2.517010 5.695570 10.838600
-2.834820 5.171590 11.021300
-3.130190 5.631440 10.711600
-3.442310 5.103210 10.879200
-3.734560 5.553800 10.557400
-2.810940 6.147960 10.514300
-3.420000 6.076390 10.374500
-3.097990 6.583800 10.163900
-3.448770 3.065660 11.617100
-1.918700 4.742900 11.405000
-2.540260 4.694700 11.302900
-2.240790 4.203910 11.556600
-2.855970 4.153050 11.438800
-2.555990 3.658240 11.676200
-3.159990 3.608200 11.543200
-3.745710 3.551900 11.384400
-3.151340 4.635120 11.172900
-3.456290 4.093400 11.293700
-4.039770 4.025450 11.123200
-3.748740 4.565220 11.016200
-0.646600 2.684590 12.191200
-1.281060 4.779060 11.479100
-1.606220 4.244620 11.647000
-0.963807 4.272520 11.707500
-1.288850 3.733410 11.859600
-0.643190 3.753760 11.905700
-0.968269 3.212390 12.041300
-1.290550 2.666410 12.143900
-1.928110 3.701170 11.782800
-1.610820 3.187790 11.978900
-1.926570 2.639820 12.065200
-2.243400 3.153490 11.885800
-0.642450 4.798910 11.524200
0.000000 4.805450 11.539400
-0.321827 4.284720 11.738300
0.000000 3.759410 11.921300
-3.709960 2.546160 11.662000
-4.006460 3.032410 11.445600
-4.251900 2.519360 11.481500
-4.546470 2.992490 11.252800
-4.777000 2.484890 11.280800
-5.072160 2.939140 11.040100
-4.301100 3.506290 11.200700
-4.841100 3.449270 10.996200
-4.594390 3.964590 10.928100
-4.596300 0.505056 11.613300
-3.398850 2.042790 11.854300
-3.944500 2.026190 11.687000
-3.635710 1.522350 11.862300
-4.166440 1.512310 11.687800
-3.864120 1.007830 11.844900
-4.381000 1.004950 11.663900
-4.879110 0.998911 11.465000
-4.471460 2.005810 11.499200
-4.678800 1.498660 11.494000
-5.174300 1.476540 11.282600
-4.981840 1.977100 11.292600
-2.834110 2.071090 11.997000
-3.086850 1.544440 12.014000
-2.517260 1.564220 12.143600
-2.775110 1.037190 12.143800
-2.200490 1.049430 12.260000
-2.466750 0.521993 12.243100
-3.329550 1.023470 12.004900
-3.028040 0.515677 12.116700
-3.569850 0.508361 11.968600
-0.320599 2.158150 12.308100
-2.227940 2.100120 12.119200
-1.602870 2.125490 12.213200
-0.964835 2.145620 12.276600
-0.639275 1.619100 12.378200
-1.906460 1.585740 12.251600
-1.278410 1.604660 12.330500
-0.954442 1.077740 12.416800
-1.585200 1.064560 12.353300
0.000000 1.622950 12.394200
-0.319231 1.083240 12.448900
0.000000 0.000000 12.500000
0.000000 0.542734 12.488200
-0.636585 0.541155 12.472000
-5.098750 0.493407 11.402200
-5.580450 0.476480 11.175000
-6.041840 0.442321 10.933900
-5.377960 0.970357 11.242100
-5.858020 0.925595 11.003500
-5.673660 1.423640 11.046800
-1.195910 9.056450 -8.532320
-0.881961 9.369070 -8.227550
-0.600818 9.065710 -8.584970
-0.912866 8.737190 -8.892600
-0.305002 8.747290 -8.924240
-0.616192 8.402070 -9.234470
0.000000 8.408520 -9.249140
-0.311105 8.045640 -9.561420
-0.295185 9.371110 -8.267110
0.000000 9.069140 -8.602360
0.000000 8.749890 -8.926900
-2.445060 7.535460 -9.668950
-1.502300 8.715300 -8.833840
