1590
-24.256201 -4.351920 20.165300
-21.547100 2.081770 17.544100
-23.692600 -2.042120 17.132601
-18.440300 4.374620 20.523100
-18.428900 3.663180 22.508101
-19.948200 3.893890 18.386499
-18.877501 2.697840 24.130501
-18.190901 2.800140 24.869699
-19.595200 2.213240 24.032900
-18.443300 3.295930 23.340000
-23.109699 -1.290260 25.643499
-13.189399 5.982200 22.072800
-12.212400 6.264380 22.056999
-15.135600 5.510290 21.862700
-14.252400 5.761580 21.913799
-14.937100 5.677750 20.902599
-11.618200 6.122460 22.678801
-13.875300 5.044460 24.531300
-7.294610 6.797070 21.465099
-6.267340 6.969080 21.328800
-7.886950 6.526100 22.239700
-8.539810 6.275810 23.075701
-7.519199 6.276410 23.205299
-4.675640 5.311730 25.281401
-4.797440 5.732440 24.439800
-0.460037 6.845359 23.557600
6.263470 6.440900 23.781700
2.375390 8.356360 20.644899
-5.205370 7.112660 21.413799
12.734100 5.898340 22.214399
15.327900 4.853930 21.564800
16.947100 2.813720 22.899000
15.595301 4.313930 22.416599
16.121000 4.266090 21.537600
16.094000 3.518500 23.084700
14.898000 -3.754600 28.228300
14.375200 -4.599340 28.654900
15.193599 -4.757270 27.962900
15.269100 -3.000430 27.828899
18.919800 -4.702560 23.212099
18.528999 -5.395140 23.824800
15.042400 -0.941495 27.552700
15.671900 -0.318420 26.822001
19.198200 -6.404980 22.377600
18.266300 -8.833220 23.062901
18.272600 -8.058300 23.583200
18.805201 -7.259650 22.956301
16.117701 -10.368100 25.315500
16.189400 -9.465270 25.937401
15.528200 -10.372800 26.070000
13.907400 -10.986100 26.802299
18.414301 -10.054900 21.492399
14.644400 -7.820770 28.175699
13.151700 -15.091300 21.383101
11.948600 -13.927499 23.678200
11.623600 -14.594100 22.979200
10.504400 -16.758301 19.523399
10.543100 -17.214899 18.463499
6.857950 -15.195101 21.955900
10.151200 -15.664800 22.127399
5.081650 -17.731001 20.330000
2.958710 -18.419500 19.614000
0.311222 -18.057600 19.291599
-1.162730 -16.003201 19.887100
-2.834060 -15.207099 20.498100
-5.380470 -13.916601 22.695101
-6.163340 -14.177701 22.014000
-0.586290 -14.557400 23.215099
0.225202 -14.380700 24.008301
-6.974330 -13.738699 22.593500
-4.764580 -8.298850 28.586700
-4.672900 -9.409530 27.955500
-3.869330 -8.538240 28.343901
-4.613790 -13.550901 23.423100
-7.249479 -13.180100 23.608500
-7.007871 -12.596700 24.588100
-6.727880 -11.991100 25.483500
-7.039500 -14.219300 21.667101
-7.394451 -14.519399 20.720501
-11.346600 -13.682501 23.109200
-12.059600 -14.056700 22.456200
-14.077200 -13.521900 23.625999
-13.013099 -13.345800 23.969900
-13.871600 -13.010600 24.503799
-13.037000 -14.352500 22.019899
-15.728800 -14.317700 21.549999
-20.113800 -12.103300 23.072001
-19.209999 -13.085001 21.530100
-19.940800 -12.360900 22.035000
-21.068899 -11.256400 14.730500
-24.250601 -4.711770 18.285900
-22.794800 -8.964890 15.997300
-22.631300 -9.675720 16.571301
-23.840200 -3.733690 16.612700
-24.288799 -5.810000 18.526600
-24.287201 -4.996720 19.278400
-23.473400 -1.417490 19.844299
-23.552999 -8.617180 17.948299
-22.303400 -8.130230 14.376100
-8.967070 6.526450 22.021200
-20.099100 3.739200 17.429300
-19.387699 3.966610 19.954700
-19.298000 3.718530 20.945400
-12.548600 5.817250 23.113400
-14.426699 4.505960 25.208599
-17.569201 3.861710 23.120501
-13.209700 5.509030 23.839100
-5.480490 6.046420 23.767900
-4.677080 6.344160 23.522600
-9.291270 5.892920 23.829500
-6.507080 6.183790 23.437599
-1.672900 6.041680 24.750299
-0.791190 5.677270 25.369200
-0.050842 7.444180 21.849800
0.368727 7.022690 22.920300
-0.519833 7.261900 22.530300
5.169510 8.644070 20.404301
9.116730 5.583540 25.232599
2.874430 6.933640 23.860600
-7.828189 5.453210 24.984501
-6.712850 5.434430 25.158001
-7.150030 5.912800 24.243000
-6.074710 5.831620 24.433001
-4.792700 6.882610 22.500900
-4.200670 7.255790 21.458401
11.988800 5.070970 23.910900
15.038401 3.055720 24.667000
15.488801 3.402200 23.866301
10.942700 5.311210 24.294100
16.436399 2.721090 23.706100
15.833899 2.683020 24.422501
16.404800 1.990200 24.544001
13.149800 1.557390 27.763800
14.706000 1.206700 26.791500
13.497501 -4.434360 29.276501
15.902499 -4.817750 27.271999
16.427601 -4.022930 26.750700
15.737500 -3.702150 27.472099
18.223900 -9.634860 22.436600
16.732401 -7.460030 26.133699
15.465799 -7.662320 27.467100
15.810600 -11.962300 23.723801
17.739500 -8.017120 24.524401
14.046200 -13.211300 23.580200
4.198850 -17.354700 20.599800
2.417230 -17.031300 20.587299
3.140070 -17.697100 20.288300
5.187310 -14.972400 23.200399
5.898850 -15.012699 22.586901
6.058600 -14.694600 23.549601
1.582330 -13.549600 26.200600
0.678132 -13.703300 25.584700
0.063009 -14.003401 24.722300
-3.946000 -13.171799 24.087099
-3.035700 -14.978800 21.459700
-3.936340 -14.980201 20.681601
-1.937210 -15.167101 21.349800
-1.292590 -14.851100 22.328899
-1.584650 -14.429399 23.193001
-0.823287 -15.178301 21.489599
0.021434 -15.573600 20.829901
0.227651 -15.230799 21.598499
2.634980 -14.993299 22.679100
2.936490 -15.183301 21.630199
-10.415200 -13.823899 22.992300
-13.167900 -13.902000 23.011400
-14.007700 -14.105300 22.586000
-12.145700 -14.722899 20.474100
-13.112400 -14.681300 21.027100
-14.873400 -14.243500 22.122801
-14.040600 -14.537201 21.574499
-11.839400 -13.176400 24.187700
-22.769100 -9.623830 21.078899
-23.109800 -9.339200 20.122801
-22.561800 -10.145700 20.256701
-18.353800 -13.964000 20.048000
-24.009701 -7.600679 19.799700
-23.877300 -8.021780 18.865900
-21.433901 -11.316600 20.712299
-20.007700 -13.000899 19.067499
-22.442499 -9.017450 14.984900
-23.456900 -1.389580 17.962799
-3.871410 7.134251 22.315901
-18.418600 4.023590 21.562599
-16.539301 3.345220 25.497601
-17.334600 2.860220 25.712099
-17.868999 2.388390 28.175100
-16.687599 2.527780 28.659599
-15.711201 3.500620 25.942200
-17.488501 2.388280 32.211498
-17.928600 2.196260 33.255501
-13.990700 1.960370 30.328100
-14.758300 2.329800 29.488501
-15.147801 2.266980 30.389200
-13.715200 5.659110 22.935900
-3.670490 6.063540 24.164700
-2.794120 5.679860 24.885300
-1.876520 5.324660 25.531200
1.817010 7.623830 21.267300
-4.734090 1.964160 28.250999
-1.355810 4.044710 26.876801
-1.667320 3.300830 27.447100
11.596500 4.788080 24.896299
10.633900 4.985290 25.361099
11.382500 4.408590 25.875500
13.027600 0.805162 28.283600
14.045899 -3.648220 28.852301
14.634300 -5.795680 28.417900
16.512501 -3.108330 26.666100
15.894300 -2.531960 27.233801
13.813300 -10.399800 27.493401
14.702800 -10.290200 26.837000
15.460600 -5.695440 27.682199
15.800100 -6.666410 27.284901
15.017299 -6.770860 28.002899
7.987750 -14.409900 23.207600
7.655910 -14.905300 22.373699
5.890430 -15.464800 21.639000
2.144060 -15.599800 21.351700
-1.019520 -15.430100 20.560900
2.173470 -14.480000 24.699699
1.040010 -14.260199 24.701599
-5.214930 -14.477600 21.734301
-4.421000 -14.175600 22.450701
-3.369090 -14.458400 22.341499
-3.707400 -13.799400 23.234100
-2.272260 -8.430890 28.846800
-4.461260 -11.761200 25.877899
-5.817100 -8.377000 28.850800
-3.096280 -8.964160 28.304701
-4.153990 -14.649901 21.659700
-3.555610 -11.430400 26.374201
-4.358890 -11.043200 26.688499
-9.453360 -10.232900 27.426300
-9.046740 -9.545500 28.075600
-9.963950 -9.635650 28.261801
-9.901230 -13.423700 23.882299
-10.764900 -13.274200 23.963100
-6.294380 -11.358600 26.364700
-13.342599 -13.357700 28.144100
-20.697800 -12.325100 19.277300
-18.112200 -14.205000 24.451500
-18.742399 -13.494100 23.985701
-21.407600 -16.158501 25.733801
-20.826500 -14.531400 24.403000
-22.690201 -10.045200 19.325899
-21.960800 -10.986200 18.910000
-22.053801 -10.817800 19.951599
-22.100000 -10.525300 21.001400
-21.389200 -11.587900 19.660200
-22.903400 -9.002860 21.879999
-22.776899 -8.169990 15.361300
-23.394600 -9.032510 19.056900
-24.318899 -6.079200 19.663700
-24.201401 -6.894270 18.999100
-24.178699 -6.894849 20.212200
-23.448000 -4.515960 23.166901
-23.431101 -3.555860 22.712400
-22.720501 -0.896365 22.624500
-23.623301 -1.863680 18.849800
-7.320230 4.963890 25.819500
-8.245520 5.947920 23.975700
-23.364500 -2.650820 22.211100
-21.736200 1.161570 28.698299
-20.912001 1.623610 29.467400
-20.851299 1.556990 28.351299
-18.147200 2.446240 31.280199
-17.250299 2.485990 30.986601
-18.169399 2.482100 25.692801
-12.258200 0.996345 31.712299
-20.612200 0.771328 25.608299
-23.903400 -2.454370 33.155701
-23.610001 -1.389260 32.734200
-24.215500 -2.185220 32.356098
-19.053101 2.155100 25.023500
-8.884860 5.468950 24.743900
-3.818300 5.456920 24.972700
1.761770 6.711050 23.894300
2.305330 7.116340 23.051800
2.543980 6.387840 24.720301
2.222780 5.667110 25.418301
3.337180 5.914320 25.402399
1.338070 6.063010 24.761200
-5.112530 3.538040 27.169300
-4.473840 4.233680 26.619301
10.319300 4.595580 26.423100
9.176390 4.742820 26.842600
10.113400 4.081310 27.268299
8.372110 6.299560 22.917400
11.758700 -2.637650 30.129101
11.089600 -1.883160 30.325500
14.817201 0.156995 27.318100
14.597700 -11.164400 26.109900
13.311000 -8.773890 28.827600
16.149599 -7.557820 26.778601
12.892400 -10.512300 28.108801
10.040600 -14.867300 23.036600
8.674990 -14.061400 23.995300
2.961820 -16.097000 21.135300
3.332890 -16.904400 20.782600
7.049270 -14.388100 23.888901
6.966930 -14.655099 22.931299
-6.874670 -10.889100 26.996901
-5.210140 -11.208300 26.519800
-2.311360 -12.649400 25.605200
6.522380 -13.600701 26.520800
-2.616730 -14.196501 23.158001
-5.843530 -10.711600 27.160900
-6.555261 -10.191900 27.789400
-1.638100 -12.285000 26.507900
-0.749457 -12.690400 26.468700
-9.905680 -12.846800 24.661400
-10.008200 -12.254100 25.380699
-2.656250 -11.905600 26.332500
-1.344070 -11.527800 27.491301
-0.673995 -12.089600 27.222500
-2.878290 -10.998000 27.150600
-2.870660 -10.089600 27.781200
-8.541700 -10.291700 27.499800
-15.011401 -13.147500 24.162100
-14.907800 -13.708500 23.176901
-10.332800 -10.436200 27.633499
-10.907700 -11.107300 28.061399
-10.870300 -11.086600 27.065800
-11.394000 -11.489200 29.843399
-11.656200 -11.346900 30.877600
-12.230700 -12.140600 30.275200
-16.196501 -13.050701 24.332800
-17.171499 -13.548300 24.502001
-22.182899 -10.142200 21.874800
-12.886800 -12.837200 24.776199
-16.610201 -15.870501 25.895500
-19.910200 -14.930401 24.413000
-19.734900 -15.957799 24.910999
-23.915600 -6.877970 21.414900
-22.871300 -8.442080 22.779800
-23.175100 -7.515480 22.994801
-24.201200 -6.073930 20.784800
-23.830700 -2.513820 18.054501
-8.484720 4.970050 25.727100
-23.212700 -3.453070 23.646500
-19.944000 1.388740 24.860800
-19.072901 2.165210 27.942101
-19.885000 2.006730 28.871599
-17.954000 2.500240 30.267799
-19.289400 1.705860 35.126801
-19.305099 2.275910 36.083099
-14.775200 1.868980 32.864799
-15.406599 1.819030 34.518799
-14.668999 1.632500 33.877399
2.804130 7.367720 22.002800
5.045310 6.762489 23.595200
5.332970 6.355690 24.594200
3.493080 7.163680 22.773399
-5.713670 1.824000 28.453699
-5.454430 2.652080 27.789700
-2.205140 4.575550 26.316500
-1.089300 4.863650 26.176100
7.081630 6.096110 25.207800
6.301700 6.224440 24.871201
13.211601 3.825720 25.145201
12.312900 4.140280 25.489401
9.652360 5.125290 25.838301
13.984301 0.870671 27.561899
12.940400 -0.025183 28.718000
7.978611 -4.482440 31.438999
6.936390 -4.841420 31.511900
7.290870 -5.516580 31.471600
10.012500 -1.494720 30.649099
13.264300 -3.435690 29.352900
12.473600 -8.966050 29.224600
8.152340 -13.182900 26.691401
10.576900 -10.740800 28.964500
9.564260 -10.790000 29.343700
2.448490 -14.918200 23.711300
-2.308490 -14.734099 22.285900
-3.356530 -12.144400 25.602699
-3.181510 -12.796700 24.843700
2.788830 -12.967700 27.406799
1.839710 -13.058600 26.992399
-0.630445 -9.041620 29.246000
3.707090 -12.760000 27.892099
-4.120700 -12.511800 24.976801
-9.935930 -10.954200 26.737801
-10.425700 -11.639600 26.120300
-12.284300 -13.642200 23.397800
-6.845759 -8.460700 28.980000
-6.300910 -4.355290 30.171700
-7.478130 -10.305900 27.643299
-10.963200 -10.617700 30.573299
-9.548410 -8.813390 28.871000
-20.666901 -12.163200 20.348400
-14.403800 -14.253600 29.202000
-24.342300 -12.117900 25.584400
-23.553301 -11.494900 25.156500
-15.043399 -13.424099 26.123800
-15.625199 -13.029501 25.230600
-20.993299 -11.242900 22.934099
-17.131800 -15.415799 25.298901
-23.953100 -5.802020 21.797001
-22.371401 -9.497940 22.679199
-23.404100 -5.351730 23.655899
-24.298100 -5.335770 20.224600
-19.552700 1.879640 32.183102
-18.512400 2.193860 32.309200
-19.083099 2.168820 31.424299
-22.067400 0.822224 30.789700
-22.352800 0.314212 31.713100
-21.435801 0.981205 31.643801
-16.985800 2.524750 29.766199
-15.933300 2.516190 29.518700
-18.503300 1.985540 34.323700
-17.346300 2.181990 34.183601
-9.927670 1.232790 30.035601
-8.819430 1.370730 29.808901
-7.693930 1.655830 29.464001
-13.673700 2.169720 29.375999
-10.745500 4.058160 27.487600
-0.402506 3.642880 27.364901
-0.230703 4.446110 26.735100
6.393520 5.830230 25.839600
7.223491 4.760410 27.285400
0.788402 4.819360 26.535601
5.283100 5.917090 25.552601
12.127400 -0.176001 29.226000
9.320050 -8.428580 30.703300
8.749500 -9.224510 30.504299
6.166630 -5.557180 31.494600
7.096240 -3.856260 31.491699
9.078470 -12.970800 26.710899
7.857050 -14.153401 24.205299
-6.013970 -6.002080 29.858900
-13.131500 -12.711400 30.645399
-14.110400 -13.925300 28.167500
-13.707699 -13.299399 27.278099
-17.231800 -14.496800 24.898600
-16.456100 -14.810801 25.576300
-9.633800 -7.766430 30.572500
-19.393499 -16.775999 25.566799
-25.362200 -12.468800 27.035299
-25.380400 -12.210300 28.033701
-25.326000 -11.498000 27.531900
-22.098801 -13.633800 24.493099
-20.995300 -11.840000 23.750999
-24.061100 -7.559000 25.262501
-23.499100 -6.122220 24.351900
-25.012501 -3.223470 27.448700
-22.941299 -2.355260 24.121500
-18.255301 2.261000 27.205400
-21.030001 1.472340 30.605400
-20.160299 1.797650 31.105900
-20.023800 1.977090 29.974501
-11.620300 3.594570 27.888100
-16.240299 2.443050 30.568501
-14.473901 1.239240 34.848701
-20.802099 1.332160 27.344900
5.253370 2.228350 29.488199
2.212620 2.768510 28.822599
3.246390 -0.142220 30.504299
3.994030 -0.604944 30.782101
-3.571910 -0.333428 29.143299
-2.827420 -1.019120 29.418699
0.284076 3.017700 28.013500
1.464560 3.368660 28.116100
0.672971 3.983750 27.369200
10.928200 0.954796 29.304899
7.237500 0.236591 30.633801
7.063460 -0.829118 30.993799
11.656700 -0.971748 29.776800
11.694000 2.443020 27.995001
9.316130 -5.255810 31.154900
7.945910 -9.955460 30.201700
11.587300 -6.802220 30.203300
8.824970 -13.433000 25.844000
9.111800 -10.001500 29.997400
6.769250 -10.188300 30.146500
6.440990 -14.058500 25.602301
-0.855093 -9.867330 28.750999
-2.138180 -11.609700 26.987101
-2.091470 -10.770300 27.712999
-1.116760 -10.749000 28.170099
1.459630 -11.142200 28.932100
-7.120620 -9.478620 28.357599
-5.622940 -5.003010 29.921900
-4.933490 -5.691170 29.663601
0.133837 -12.615700 26.949499
0.826844 -13.125700 26.555599
2.206010 -11.670800 28.676201
-12.023500 -12.309500 29.246799
-11.478200 -11.767400 28.646400
-16.444799 -13.740500 25.132299
-15.786000 -14.015299 25.888201
-19.198299 -14.108701 24.218201
-18.942699 -15.112399 24.612101
-25.090099 -10.599300 27.042700
-21.686100 -10.411800 22.721001
-21.379801 -10.801200 23.745300
-24.850599 -9.577010 26.751499
-23.180500 0.007730 28.249100
-23.786600 -0.655498 28.470301
-22.408100 0.578934 27.945499
-24.994600 -3.060250 29.454201
-24.435301 -2.045150 29.725201
-13.950699 1.663760 32.059898
-13.143700 1.203800 32.240501
-21.760900 0.443282 32.551701
-21.376301 0.500734 33.480900
-14.408999 1.976030 31.162800
-10.822600 3.334770 28.352600
-10.279500 0.364450 30.545601
4.330820 6.128760 25.171000
-13.264100 1.555940 31.198299
-4.976510 1.049820 28.808599
-4.268360 0.360079 29.014799
9.880040 2.612350 28.689400
5.290210 -2.840600 31.342400
6.279460 -2.210870 31.317900
10.870900 -7.374950 30.420799
6.314210 0.663585 30.486099
6.163160 -0.119181 30.808100
5.267910 -4.802800 31.437401
5.038390 -5.856420 31.403700
7.235970 -7.124580 31.274401
8.249050 -7.215390 31.172300
9.466100 0.195516 30.256800
7.892910 1.026780 30.197001
10.976900 -5.254300 30.604300
11.747400 -7.643700 29.987900
7.418360 -10.849200 29.655701
3.360160 -10.374800 29.900299
6.359260 -10.907200 29.670099
0.770945 -10.415600 29.103500
1.597080 -10.333100 29.451599
2.197140 -6.210220 30.955299
1.202100 -5.851970 30.732300
-0.185915 -10.597400 28.634300
1.544070 -6.907700 30.712299
2.701520 -7.277580 30.926901
-3.311870 -5.998420 29.387600
-3.996800 -5.311390 29.515600
-4.657260 -4.580330 29.716000
-16.375200 -16.593700 29.716000
-15.987601 -16.563200 28.169600
-17.043301 -16.890600 30.427401
-17.116501 -17.554600 29.288900
-16.675501 -17.458799 28.184099
-20.357599 -16.420601 25.628099
-23.707600 -3.641330 21.846399
-25.023399 -5.837230 25.862600
-23.728901 -5.108200 24.657801
-25.451599 -4.563850 30.100599
-23.698900 -0.790860 27.503700
-24.686100 -2.444780 27.830700
-23.193600 -0.574401 31.909500
-23.952600 -1.499980 31.694401
-22.557400 -0.161967 32.454300
-18.993601 2.323750 30.436100
-19.521299 1.678740 34.092499
-20.589600 1.168620 33.737301
-20.282000 1.232500 34.718899
-15.801200 4.092340 36.147800
-15.862900 3.123870 35.640202
-12.880600 0.455525 34.492500
-13.727501 0.666956 35.138599
-15.544600 2.249730 31.398399
-16.506901 2.390810 31.816601
-15.818800 2.315530 35.159901
-15.001400 1.229310 36.716301
-14.221601 0.315449 36.882198
-1.383670 0.414872 29.165100
-0.791085 2.923550 27.820499
-2.550060 2.712120 27.814699
-0.674970 1.258540 28.889200
7.219329 -2.836050 31.388700
7.099240 -1.804200 31.224400
8.120080 -1.455480 31.053301
8.869170 0.838522 30.111200
11.829900 -4.754590 30.234400
4.386190 -5.081840 31.361099
4.021440 -9.567190 30.429800
0.499245 -6.512090 30.458700
-7.004400 -3.767600 30.379999
-6.088430 -3.192660 30.153799
-10.685200 -4.774600 33.879002
-11.060300 -4.931180 34.813400
-10.900200 -5.811980 33.916100
-13.752700 -13.532500 29.931299
-15.770800 -16.035900 29.035101
-18.828501 -17.558001 26.236900
-18.189301 -18.029499 27.096901
-25.326300 -11.503800 28.706200
-24.719101 -7.760870 25.898500
-24.988300 -11.612000 26.409401
-22.599199 0.617771 28.985600
-21.173500 0.546864 34.514301
-21.569700 -0.117759 35.236301
-20.931700 0.606528 35.388500
-19.607000 2.073110 30.709700
-25.160400 -3.635140 30.274700
-25.605200 -6.961490 27.057199
-25.200300 -6.836980 26.257200
-25.276300 -7.828200 26.735901
-22.720100 0.442624 30.034000
-22.873600 0.065946 31.007700
-11.784900 -0.217523 33.137001
-12.237700 -0.211178 35.247898
-18.955999 1.935090 33.210201
-14.828899 2.015080 31.990101
-9.163520 0.365792 30.254700
-0.694191 2.208210 28.315701
-3.903850 -1.424230 29.427099
-4.214810 -2.406920 29.606199
-0.988929 -1.490820 29.884701
-2.032360 -1.734710 29.680700
-6.975491 0.917354 29.607500
-6.659450 1.796750 28.997101
-8.051100 0.734361 29.958500
0.186392 1.265330 29.110399
1.678960 1.059380 29.694099
4.385400 -2.266340 31.186001
6.985970 1.263520 30.154600
3.592530 -13.907100 26.172300
4.542330 -14.165700 25.761200
5.539190 -13.923900 26.174601
2.380050 -10.808900 29.415300
1.866910 -7.910770 30.626200
-8.454740 -1.753300 30.582199
-9.414890 -1.519570 30.778900
-9.084500 -2.633910 30.850300
-7.312140 -1.953280 30.372900
-8.130560 -2.821380 30.605900
-7.104431 -2.889520 30.398199
-7.984560 -3.918130 30.584600
-9.863550 -0.491698 30.706800
-10.230600 -1.368800 31.542700
-8.952430 -3.617440 30.891600
-5.653800 -0.905106 29.696199
-4.663870 -0.702892 29.328400
-5.022880 -1.649330 29.642200
-6.150510 -2.075350 30.095900
-5.236520 -2.736910 29.876801
-12.109100 -11.221900 31.802601
-12.604000 -11.960600 31.230700
-12.725300 -9.991770 35.112801
-18.590200 -17.208799 32.046398
-18.573500 -17.625401 30.965300
-17.781099 -17.024599 31.281799
-18.731400 -17.976200 29.927700
-19.483101 -17.980801 30.669399
-18.637100 -18.220501 28.034800
-17.561300 -18.053600 28.179100
-16.375601 -16.941900 28.960300
-17.795200 -17.578300 30.148001
-21.259800 -17.006500 27.377300
-24.777901 -8.601040 26.286200
-23.626200 -10.365800 25.412901
-24.630899 -10.518000 26.174500
-20.229500 -18.000799 29.024000
-19.119600 -18.183800 28.970600
-21.829201 -17.328199 29.035900
-23.009300 -16.402500 26.838301
-21.917400 -16.563499 26.635300
-24.744301 -2.682150 30.513201
-21.862700 1.121150 29.822599
-15.335900 2.229570 36.133598
-22.229500 -1.072220 34.980400
-10.492900 -0.586118 36.161800
-10.029900 0.244990 36.770599
-9.464970 -0.552073 36.600201
-15.459100 3.242300 36.551998
-12.297300 0.591072 32.551998
-10.235000 -2.437330 32.094601
-8.885680 -0.782250 30.500601
-9.781300 -2.183300 31.247601
-1.773800 -0.707394 29.527201
5.818020 1.452960 30.048201
0.745326 -1.837430 30.456600
1.576250 -2.408000 30.749901
1.868490 -1.443000 30.611401
0.042998 -1.179120 30.089800
2.304850 -9.869830 29.927900
-5.362060 -3.886560 29.942400
-8.310030 -0.130898 30.267799
-7.753800 -0.978778 30.348400
-10.715500 -9.668300 31.290001
-10.165000 -8.743190 30.931601
-9.830090 -8.692560 29.894199
-11.793300 -9.654350 33.138100
-17.950100 -15.697399 34.520401
-17.187500 -15.440501 33.880798
-17.219101 -14.972001 34.990601
-14.960499 -12.429900 34.094101
-19.623899 -18.129900 29.791800
-18.105101 -18.034700 29.193300
-25.343500 -9.504160 30.682301
-20.842800 -17.490900 28.344700
-15.080800 1.549220 35.626801
-21.260599 0.022765 36.254799
-15.236499 5.284300 38.567299
-15.250099 5.406550 39.527599
-15.356400 4.282490 39.257702
-13.549901 0.213684 36.243698
-12.954000 0.212683 35.436100
-15.129400 7.428380 40.527599
-15.164899 6.510331 40.026501
-11.221800 -1.770520 34.571999
-11.428500 -0.481008 35.808998
-11.228500 0.163867 36.671001
1.320110 -3.321200 30.786501
-10.605800 -8.730240 31.860300
-10.075700 -7.854260 31.480301
-16.661200 -15.317100 32.155201
-17.192600 -15.844600 32.679901
-17.111700 -16.232300 31.562201
-21.469999 -17.650999 31.584900
-20.439199 -17.672501 32.120701
-21.274500 -17.268999 32.569599
-24.910299 -13.956900 29.989000
-24.139099 -14.828000 25.943300
-25.082701 -10.706400 30.540400
-24.680700 -11.197900 31.565399
-24.854500 -10.094400 31.514799
-20.480000 -18.066000 30.154400
-20.452900 -17.951599 31.223600
-24.456100 -11.634800 32.701801
-24.422899 -10.515200 32.421101
-22.832899 -1.772710 34.734501
-22.976801 -0.878223 33.022701
-23.257000 -1.691770 33.638302
-15.639700 4.722260 40.270302
-16.231899 4.197680 40.894600
-17.261299 4.608960 35.569099
-16.443199 4.885350 35.886101
-16.381701 5.913350 36.239201
-15.738100 5.120680 36.588100
-14.429300 0.781096 35.936699
-15.891400 1.923660 38.804798
-16.014900 0.813667 38.742901
-15.560500 1.406700 37.752399
-12.377100 -0.071523 36.307098
-13.157300 0.089617 37.165199
-12.480400 0.248360 33.591702
2.291030 0.433461 30.104300
-11.129600 -4.343420 35.651798
-11.276000 -10.554100 31.568501
-11.191400 -9.569140 32.255798
-11.351300 -6.066930 34.820000
-11.717300 -6.389680 35.709499
-11.689800 -7.058040 34.952999
-10.184300 -7.029290 32.093300
-17.267799 -14.499500 36.073299
-18.908300 -15.782501 35.106499
-19.982700 -15.579501 35.441898
-14.833300 -12.661600 32.996700
-25.363400 -13.148699 27.990601
-24.289600 -11.230200 25.666901
-24.293600 -11.827800 33.885101
-24.347500 -10.801400 33.496700
-25.667000 -5.587750 29.964800
-25.073099 -8.959810 31.587000
-24.477600 -2.422610 31.579100
-20.004101 4.864830 39.338299
-21.930099 -0.858976 35.963501
-19.814899 1.542960 36.211300
-20.148001 1.181290 35.525902
-24.409201 -5.131340 34.704700
-24.006300 -4.385650 35.076199
-24.142401 -4.484050 33.965401
-19.580299 5.361520 38.617298
-19.618299 3.085660 36.801102
-18.988100 3.266420 36.085201
-21.674900 -1.130910 37.794300
-19.794901 2.733500 40.515499
-19.775900 3.763400 41.175301
-18.276600 4.421200 42.248501
-17.448200 4.085730 41.951302
-17.411900 5.135590 42.465698
-15.391699 5.226690 37.568401
-15.341500 6.273810 38.016800
-11.677600 -5.856240 36.517502
-11.439600 -5.284060 35.707100
-11.269400 -4.691160 36.740299
-9.962900 -1.397160 36.189201
-10.430100 -2.316320 35.880901
-10.986400 -1.458380 35.632000
-11.958800 -6.955170 36.485699
-12.671900 -9.829200 36.063900
-11.723600 -7.892970 34.339500
-17.795799 -16.559601 32.307598
-14.459401 -12.953200 32.074299
-15.016100 -12.669900 35.240799
-16.350201 -13.745200 36.184399
-16.536301 -14.248799 35.245300
-19.558901 -17.738800 31.671499
-20.403601 -17.185200 33.079102
-24.514700 -13.618499 31.834700
-24.168900 -14.790000 31.482201
-24.493299 -12.747800 32.492699
-24.682600 -12.349300 31.717600
-24.648899 -14.041399 30.951099
-24.300501 -15.242699 26.733000
-20.580500 -16.553301 34.079601
-24.892599 -7.177821 32.515900
-24.641600 -7.515580 33.404301
-19.790701 1.720130 39.932301
-24.519800 -5.346830 37.723202
-23.779499 -4.658740 38.162601
-24.818300 -6.875950 34.304699
-24.609200 -5.715580 34.050701
-24.873600 -6.063950 37.027000
-24.557800 -5.229580 35.662601
-15.870800 3.645670 40.010700
-17.629601 6.142050 43.027599
-17.615801 -0.208940 39.913300
-18.199600 0.485410 40.367199
-18.667101 -0.277187 39.979900
-12.140900 0.177454 37.277901
-12.750200 0.202388 38.149700
-10.760100 -3.339290 35.627800
-10.969100 -2.650840 35.167599
-10.157100 -3.039680 36.368999
-22.721201 -16.971500 29.528200
-25.175400 -11.626200 29.771000
-24.934401 -11.849400 30.782600
-24.267099 -12.644200 33.393002
-25.206900 -7.902660 31.726500
-25.251499 -6.894509 31.791300
-24.702000 -5.195480 36.591202
-20.106600 1.813310 38.900902
-19.996799 2.871650 37.637299
-24.882401 -6.123750 35.068100
-24.915701 -6.963440 36.746101
-24.933599 -7.158100 35.475899
-24.893700 -7.789600 36.366100
-19.993099 2.167450 36.945599
-16.434999 10.159200 37.514599
-16.127800 9.142020 37.459099
-17.016701 9.688840 37.052299
-19.314199 8.925190 40.588699
-15.702200 6.194840 36.997799
-16.258900 6.905360 36.597000
-15.503300 9.317170 38.460701
-15.633600 7.193670 37.459599
-16.195601 8.050270 37.004101
-15.540400 0.454893 38.152901
-13.091500 -0.809133 40.770901
-18.225201 1.340850 40.731602
-19.175501 0.802213 40.147900
-7.434340 -0.056015 37.653900
-8.019320 -0.936150 37.353802
-8.422010 -0.300753 37.138401
-15.937000 -4.127480 39.611599
-15.074900 -4.873040 39.691601
-14.934600 -3.734060 39.609501
-15.815201 -2.944130 39.465698
-8.902450 -1.434290 36.844299
-10.708700 -3.794570 36.512501
-11.396500 -4.713090 37.839001
-12.426300 -8.380710 37.699200
-13.275000 -10.494700 37.866402
-13.923100 -11.421100 37.977501
-16.412001 -10.956900 39.030201
-18.761400 -16.342699 34.083000
-19.803900 -16.222700 34.604900
-20.809999 -12.327400 37.851398
-19.446899 -17.314301 32.625401
-19.564100 -16.784100 33.653900
-22.525200 -15.829800 33.453499
-18.581699 -16.743601 33.059101
-24.876301 -13.092400 30.860300
-23.189699 -13.620899 35.004601
-23.502001 -12.701600 35.445400
-23.928101 -12.696000 34.519299
-24.676800 -7.864400 34.349201
-19.593201 -0.108385 39.509102
-19.205500 -1.145680 39.568699
-24.289900 -9.733470 33.341599
-24.602600 -9.348520 32.365002
-18.130301 -1.235570 39.787701
-17.164000 10.816300 37.299301
-19.730000 6.919129 39.976799
-16.971100 8.677480 36.800598
-19.316601 8.059560 38.367500
-18.225100 14.123899 39.847000
-18.058399 14.941100 39.508400
-18.370800 13.973899 38.827202
-18.605600 13.019100 38.358501
-19.259100 8.920740 37.885399
-17.412901 8.329660 43.863899
-16.640900 8.929930 43.501301
-16.716801 0.113709 39.387199
-15.473100 5.623430 40.508900
-16.495300 1.282030 39.537102
-16.062700 -5.104800 39.707699
-15.300800 -5.969060 39.741901
-19.114401 1.852410 40.696400
-13.793900 -10.693500 38.669998
-12.606400 -6.536550 38.899899
-14.118799 -11.929200 36.994598
-16.558800 -14.643400 34.140701
-20.728500 -15.148200 35.567001
-24.455700 -8.950040 34.256001
-24.459101 -8.623630 33.372700
-24.729500 -8.251660 32.534901
-24.181400 -13.618000 32.846100
-24.331200 -9.977860 34.267601
-24.747601 -8.259590 35.270302
-24.968300 -6.121410 35.954601
-18.134100 5.370920 42.711899
-19.371000 7.119110 37.553902
-18.657499 6.968820 36.851898
-17.994699 11.404900 37.352402
-18.754801 11.925300 37.892700
-17.919001 12.553900 37.612099
-15.869600 14.974800 40.048901
-15.544300 15.724501 40.942001
-15.568300 14.691100 40.649502
-18.977600 7.932050 37.285301
-17.922800 13.704400 37.957802
-17.127001 11.901900 37.616001
-15.986100 16.134800 40.085201
-15.419900 10.282100 42.265099
-15.772400 10.923200 43.059502
-16.039900 9.773120 43.106899
-15.893101 10.138300 38.153702
-15.315099 11.235900 42.267200
-16.135000 2.483600 39.734299
-16.763599 3.837250 41.324100
-18.241800 2.303680 41.181400
-17.235300 0.886706 40.108700
-8.156500 -1.692590 37.667099
-8.420320 -2.380700 38.340099
-10.713200 1.693350 40.132099
-9.312890 1.903130 38.937000
-19.520399 -3.066120 39.553600
-19.226500 -4.178880 39.664799
-9.631240 2.173670 39.941200
-8.587280 2.789530 40.407799
-8.506950 2.437680 39.497799
-5.858750 3.855920 41.049198
-4.911370 4.237130 41.533699
-5.090600 3.580740 40.527901
-6.050590 1.084760 38.483299
-7.013030 0.842919 38.025200
-4.912790 1.161800 38.986801
-4.021150 1.124410 39.303501
-9.054350 0.253310 37.055698
-12.295600 -3.253400 40.708000
-11.638300 -2.793760 41.364899
-12.570400 -2.356020 41.236900
-12.160500 -3.965900 39.992001
-13.063399 -4.605160 39.605999
-14.111000 -4.378330 39.685001
-13.565600 -5.342960 39.595798
-12.766300 -5.606970 39.186100
-14.685799 -9.232460 39.382999
-14.511899 -12.341800 36.094398
-16.205999 -9.225240 39.529701
-15.329600 -13.071300 36.169701
-17.882099 -16.145800 33.466099
-21.609699 -14.950999 35.216599
-20.916599 -15.833900 34.819801
-23.792601 -13.516801 33.990601
-21.853201 -11.963300 37.580700
-22.253201 -14.042200 35.588299
-21.240601 -14.375299 36.010700
-24.081900 -11.830300 34.997002
-24.313101 -10.996700 34.584400
-23.115900 -9.052410 38.168900
-19.849501 -2.083900 39.397999
-18.788500 -2.216030 39.634499
-20.081600 -7.263629 39.528900
-21.026501 -7.241960 39.331200
-22.823099 -7.388539 38.697399
-20.497999 6.836220 41.423302
-20.320299 7.463080 40.828499
-17.084000 12.987400 37.986500
-17.829700 15.710300 40.984402
-17.812300 15.756400 40.171101
-18.064800 14.813200 40.594200
-15.804500 13.681699 43.987400
-15.545100 13.132799 43.323601
-15.291600 13.509500 42.634800
-15.412701 14.355199 43.445000
-15.425500 10.313300 39.052299
-15.172801 6.332310 38.971199
-15.298199 13.708800 41.712399
-15.416600 13.571600 40.732399
-15.057500 10.541700 41.248199
-15.178000 9.521120 41.532600
-15.048800 9.532760 40.517101
-15.146001 10.474900 40.130798
-15.513101 8.490480 41.921200
-15.114801 8.462100 41.014400
-15.608499 9.304550 42.338299
-18.268900 12.987200 45.788898
-19.072500 13.303900 46.036900
-16.132401 8.580270 42.821701
-16.080299 7.588810 42.385399
-11.832000 -1.895200 41.929901
-11.935700 0.534147 40.913601
-8.340440 2.012760 38.694000
-8.772330 -2.865720 39.165501
-4.144820 3.872640 40.896500
-3.512300 3.406490 40.484699
-4.393960 3.045060 40.044701
-10.276400 1.822210 41.856998
-10.096900 2.081300 40.949699
-8.473250 3.066990 41.493599
-17.326401 2.012240 40.769798
-7.083730 3.695960 44.128502
-7.665629 3.054250 44.537701
-6.745100 3.541220 45.165600
-4.213520 5.145910 43.360401
-4.082000 4.779310 42.444199
-4.459840 2.169950 39.502800
-3.628700 0.301679 39.908600
-10.030400 -2.326610 42.241100
-10.984700 -2.187330 42.167400
-10.652100 -2.901290 41.442600
-9.126020 -2.402290 40.818802
-10.085200 -3.089180 40.649502
-9.449090 -2.833490 39.882999
-13.112200 -7.541830 39.111000
-23.286400 -14.192100 34.263901
-21.980499 -15.449399 34.424801
-22.573099 -14.521900 34.813702
-22.914600 -15.040099 33.921101
-24.118099 -10.983600 35.752399
-24.568701 -9.330510 35.161301
-23.101700 -10.777500 37.423000
-16.741600 1.989800 40.220600
-16.579201 2.932450 40.597599
-18.861900 -5.284060 39.739300
-20.168699 -3.937250 39.501499
-17.437401 3.021050 41.385201
-21.775400 -7.873670 39.040199
-20.525900 -2.965510 39.304298
-19.968901 8.815760 43.598999
-19.322800 7.912489 43.636398
-15.451401 15.373900 44.056599
-15.821800 14.505000 44.392601
-17.585400 15.768501 39.107300
-15.750000 13.917400 39.993099
-15.577400 17.825500 41.449402
-15.370100 18.701599 42.259102
-15.246200 17.556801 42.376999
-15.231599 16.474600 43.805698
-15.432699 16.453699 44.696999
-15.373400 14.693000 41.420399
-15.274800 15.460300 43.057098
-15.239000 16.470400 42.761700
-17.973499 12.025000 45.271000
-17.487600 12.759000 45.249599
-15.162700 9.403660 39.522301
-15.311600 12.345900 42.545799
-18.367001 8.069410 43.966599
-12.614400 -0.058595 40.694801
-8.046330 3.117340 43.530499
-8.931650 2.583570 43.065498
-8.358340 3.101120 42.524700
-9.311990 2.532810 41.903599
-7.578890 3.614080 41.954399
-7.667890 1.594190 38.264999
-19.598600 -8.201800 39.526501
-18.759001 -9.015920 39.552101
-9.264880 2.566850 40.929401
-1.609190 1.327500 40.669201
-2.284760 1.679350 40.033100
-3.624750 5.570870 44.144299
-3.224170 5.274820 43.164501
-6.287430 0.298493 42.696899
-5.458270 0.388068 42.017899
-5.636660 0.920883 43.147701
-3.784340 0.326719 41.447300
-7.413410 -1.037630 43.646900
-8.344890 -1.369700 43.490200
-13.845701 -8.324840 39.321400
-19.861401 -11.012400 38.773701
-19.309099 -11.943900 38.434101
-19.068600 -11.035400 38.908798
-20.353800 -11.674000 38.344299
-21.247999 -11.290500 38.227901
-22.683701 -10.054100 38.066799
-24.417601 -10.250900 35.167301
-17.079201 -4.486260 39.698200
-20.066799 8.417020 41.106300
-23.544901 -9.808900 37.548901
-19.900299 11.055200 42.482101
-19.524099 12.065900 42.771999
-19.155001 11.510600 42.017101
-20.264700 11.716200 43.102699
-19.909901 9.822630 44.135300
-20.462400 10.906300 44.086102
-18.711399 11.586500 40.434101
-17.625299 16.410601 41.709801
-17.537901 16.676100 40.885700
-18.677099 12.182200 38.880100
-18.022600 15.194999 41.719601
-17.739000 17.220200 44.782799
-17.225700 18.243601 45.194099
-15.317200 15.642701 42.004398
-15.286000 14.655800 42.400398
-15.391500 16.622200 41.670101
-15.766099 16.889601 40.718498
-15.123300 19.382000 43.290901
-16.159201 19.276699 42.678799
-16.042200 19.822300 46.151699
-16.929199 19.286699 46.894699
-15.920599 19.373199 47.381001
-16.538500 15.467701 45.821800
-16.498899 16.466600 46.395000
-17.225401 15.572401 46.511600
-18.411301 17.468800 47.915798
-18.924900 16.286400 47.497700
-17.966000 16.723801 47.580101
-17.650999 11.260600 44.874401
-18.748100 11.115200 45.159302
-7.231600 2.778890 45.492100
-9.695410 2.060530 42.680302
-9.545040 1.735690 43.513901
-10.236200 1.654750 39.196301
-7.437920 3.685510 43.057400
-6.536250 4.198740 43.589001
-18.609400 -8.068070 39.645500
-17.827200 -7.373790 39.747200
-16.914801 -8.139080 39.711899
-16.674700 -7.184189 39.780602
-17.829201 -8.521070 39.642101
-8.952770 -2.234170 41.858002
-9.715790 -2.701180 41.416199
-15.402500 -8.949280 39.535500
-18.388300 -6.321830 39.766102
-14.043401 -3.245350 39.784000
-17.863600 -5.341400 39.781399
-0.345080 3.112830 42.675900
-1.085640 2.216930 42.150600
-2.432550 2.492870 40.247398
-2.547930 3.313420 40.611099
-1.538730 3.125080 40.732700
-3.384910 1.884400 39.749500
-4.835800 -0.818375 40.881199
-5.654190 -1.288890 40.661900
-13.182499 -3.690040 40.024700
-22.244900 -11.000500 37.899899
-20.734200 -10.642300 38.690300
-19.845301 -10.122100 39.128899
-19.148399 8.946390 44.195900
-18.781500 12.057800 41.341499
-18.313900 -11.842000 38.601299
-17.345501 -11.500900 38.792198
-19.017200 -7.191329 39.671600
-21.379900 -6.293020 39.300598
-19.202499 13.129001 43.115299
-20.047600 12.661300 43.488701
-19.712700 10.931000 44.774399
-20.368999 12.016400 44.786201
-17.578699 17.010799 43.765701
-17.185801 17.764000 43.009201
-15.398700 19.124800 46.500000
-16.488199 17.484501 47.067402
-17.215099 16.629801 47.131401
-16.326200 10.664900 43.701698
-16.713301 9.964020 43.880199
-8.130190 2.239250 44.953098
-7.589140 1.765230 45.667198
-6.751999 4.148790 42.491501
-17.327400 9.236750 44.121899
-17.466801 10.186900 44.478901
-12.407500 -7.589020 38.398499
-1.269660 5.382540 42.790901
-2.055450 5.641730 43.399399
-1.301570 4.661490 41.889599
-2.835880 6.017250 44.935501
-2.724610 5.801240 43.995300
-3.078090 1.022780 39.697399
-3.519640 2.633440 40.016800
-6.514949 -1.765490 40.314301
-6.870460 -1.714360 39.352501
-7.556800 -0.960189 41.620499
-8.387490 -1.699250 41.202702
-7.565540 -1.495930 40.753502
-4.095030 2.246360 43.932301
-4.923900 1.547990 43.493401
-4.026000 -0.450729 40.481800
-1.540960 1.260570 41.607101
-2.015010 2.341230 42.584801
-3.040280 2.047120 42.713200
-5.634920 -0.431218 41.289600
-17.597401 13.691100 45.736198
-19.999300 14.798800 46.598999
-19.021400 15.292400 47.061100
-19.313700 14.492199 44.245098
-18.883400 15.445400 44.612400
-18.556499 13.215800 41.517601
-18.576000 12.233600 39.738201
-18.641399 13.646701 42.449902
-18.282600 14.248900 41.577599
-16.727900 19.208900 45.684898
-15.902200 16.409700 45.596901
-15.957201 19.791401 44.962601
-14.937499 19.527201 45.572701
-19.537600 11.763400 45.236500
-8.747290 0.329852 44.726700
-9.362490 0.920935 44.339901
-8.610640 2.445630 43.964699
-8.523510 1.313250 44.997898
-4.026780 2.275410 47.786499
-8.913350 1.825290 44.370701
-5.162220 4.772390 45.225101
-6.145590 4.216010 44.744900
-5.855380 4.040600 45.718300
-0.217406 6.529759 43.880501
-0.350899 5.799390 43.021301
-5.610300 2.027430 39.003101
0.565966 5.346540 42.288300
-0.523414 5.148410 42.325901
-1.327770 2.990850 42.963902
-2.086920 0.565980 41.071301
1.697240 5.132590 42.539200
1.667430 5.200330 43.607399
1.202920 4.273960 43.010799
-4.676820 0.000358 41.394600
-8.192230 -1.712620 42.349098
-9.147770 -1.826710 42.900501
-3.020660 0.040458 40.765598
-2.574210 0.741654 40.353298
-16.889099 11.046500 44.340199
-19.995800 13.802999 46.073200
-20.564100 13.287899 45.259399
-19.880100 12.746300 45.545300
-20.628799 13.026399 44.227501
-20.797100 11.838600 43.854900
-20.287800 14.061300 44.676399
-19.831699 15.023601 45.113800
-20.636801 14.498401 45.639801
-18.931601 12.264100 45.577400
-18.870100 12.606400 42.172199
-17.293600 17.391500 41.899601
-16.883801 18.461599 42.347000
-15.881899 15.434500 44.986801
-18.037701 15.826700 47.128502
-17.276100 17.623100 47.753300
-6.084660 0.436515 45.954498
-5.198020 0.911720 46.602501
-5.766520 2.541810 46.791000
-6.735380 2.172220 46.214100
-6.020580 1.481900 46.633499
-1.694630 6.634000 45.352001
-2.922580 4.423670 48.446602
-2.479320 5.412290 48.550598
-3.322430 5.142350 47.782600
-2.520630 6.392580 46.783298
-2.379730 6.379760 45.862598
0.093684 7.258160 44.764099
1.235220 5.589100 44.511902
0.703751 4.746610 43.858898
-6.690700 -1.003630 41.056801
-6.477740 -0.286034 41.719799
-4.040450 2.274410 45.014000
-4.705260 1.701830 44.389702
-6.048510 0.227586 43.801701
-19.699301 13.583299 43.871498
-19.297800 15.914499 45.490799
-18.474001 16.300501 44.940800
-15.113001 18.333700 43.007599
-18.611099 17.895000 47.273300
-19.427500 17.074900 47.235699
-15.907900 18.300800 46.875801
-16.656300 18.497700 47.761200
-6.948740 1.173070 46.041401
-5.082010 1.833670 47.194401
-4.908870 2.949350 47.277802
-4.006330 3.190930 47.849499
-1.926910 6.240550 48.558800
-1.301120 7.000570 48.385799
-7.106740 0.391807 45.571098
-3.438200 5.615030 46.903900
-4.151620 4.800270 47.029800
-3.752400 4.277250 47.780998
-3.272320 3.536380 48.343102
0.505907 6.221570 43.171902
-0.076698 8.077650 47.486900
1.214920 5.903370 42.689301
0.274071 5.163050 44.783100
-0.119247 5.425800 45.799900
-0.642083 4.814470 45.126701
-18.542000 16.813999 45.644001
-17.246901 14.617700 45.965000
-16.452400 14.519100 45.196400
-8.703870 -0.634592 44.250401
-7.883060 -0.111729 44.948700
-6.372580 3.161360 46.084301
-7.861910 0.735967 45.373100
-0.727893 3.735700 43.494999
-1.183220 4.784470 47.461899
-1.465850 4.292450 48.307899
-2.691270 3.331690 46.587399
-2.792540 3.410490 45.380001
-2.257430 3.854630 45.862598
-2.100820 4.466430 49.136200
1.334750 6.618630 43.320900
-0.795324 5.097140 48.584599
-1.120920 4.616250 49.416401
1.353580 8.893310 46.660099
2.293590 8.360890 46.309399
-0.074513 6.014400 48.903702
-0.565305 5.479610 49.747601
0.489003 6.627340 48.134899
0.562911 6.920530 48.950600
1.848110 8.255670 47.474998
0.799908 8.696230 47.718102
1.269560 7.610820 48.131401
-1.739840 3.517470 43.828300
-1.184110 4.172430 44.409698
-2.045580 3.816500 44.789902
-3.409320 2.754950 45.796501
2.364810 7.188200 44.801998
-0.415566 5.505680 46.886799
1.319140 6.645090 46.214600
2.064830 7.284540 45.841801
1.648890 7.461870 46.977901
0.426048 8.387690 48.432098
1.699710 6.458880 45.246201
0.242396 6.189340 47.311798
-0.316565 5.701630 47.886002
-4.671210 1.431550 45.189301
-2.437710 2.811300 43.336498
-1.686680 5.459180 49.274399
-0.668255 7.155020 49.237301
0.116512 7.764640 49.394199
-0.470754 7.751870 48.298599
-0.085756 6.591820 49.968800
1.068790 7.894950 49.056702
-1.134090 6.424760 49.426899
0.450482 6.083780 46.432899
0.223491 3.934860 43.230099
-4.546750 1.242190 46.069801
-0.187574 4.481790 44.105801
0.992776 6.877709 47.254398
0.455801 8.263780 46.514999
0.837060 5.886840 45.474998
-7.528520 -14.675700 -0.031184
18.694300 -3.856470 23.622200
-2.673470 6.010220 47.666698
7.981640 -15.614900 -0.031184
13.359800 -10.775000 -0.031184
16.669600 -1.849830 -0.031184
12.493200 -12.952800 -0.031184
9.625110 6.959570 -0.031184
8.889870 7.217690 -0.031184
4.797884 -3.610802 -0.031184
4.855872 -2.792582 -0.031184
5.515877 -3.326824 -0.031184
-4.368620 -7.285466 -0.031184
-3.638486 -8.006883 -0.031184
-4.717474 -8.268806 -0.031184
-4.387756 -16.143736 -0.031184
-4.513871 -15.100780 -0.031184
-3.632610 -15.554708 -0.031184
10.796493 -13.490432 -0.031184
9.936380 -13.124331 -0.031184
10.630574 -12.760274 -0.031184
2.102207 -10.919719 -0.031184
2.730694 -11.719095 -0.031184
1.523858 -11.884139 -0.031184
15.087479 -7.082775 -0.031184
15.760931 -6.854948 -0.031184
-7.936118 -6.155138 -0.031184
-8.857380 -6.015674 -0.031184
-8.142531 -5.336807 -0.031184
1.983835 6.735260 -0.031184
2.637502 7.238392 -0.031184
2.727437 6.551507 -0.031184
-2.762782 -15.815394 -0.031184
-2.109041 -15.205884 -0.031184
-1.964180 -15.949786 -0.031184
7.592787 2.670622 -0.031184
7.328450 3.343649 -0.031184
8.052454 3.317844 -0.031184
-3.462825 -8.980715 -0.031184
-2.625118 -8.429103 -0.031184
-2.354798 -9.549156 -0.031184
9.947412 -14.026411 -0.031184
-3.550279 -9.904961 -0.031184
-2.876582 -10.378291 -0.031184
-3.573443 -10.821735 -0.031184
9.472379 -7.995842 -0.031184
10.326892 -7.612169 -0.031184
10.238062 -8.500160 -0.031184
5.332804 -10.702041 -0.031184
6.151862 -10.815083 -0.031184
5.580175 -11.536819 -0.031184
-7.757408 -13.217571 -0.031184
-7.167728 -13.883315 -0.031184
-8.055275 -14.020992 -0.031184
-1.829588 -6.942464 -0.031184
-1.780388 -6.025445 -0.031184
-1.025513 -6.481953 -0.031184
-10.606262 -6.628754 -0.031184
-10.096521 -7.363637 -0.031184
-11.060705 -7.260544 -0.031184
5.020001 -5.925969 -0.031184
4.207013 -6.074717 -0.031184
4.438000 -5.244378 -0.031184
-0.154042 5.731047 -0.031184
-0.392471 6.518550 -0.031184
0.482863 6.344468 -0.031184
1.760274 7.524032 -0.031184
0.807095 7.735985 -0.031184
6.498072 6.878612 -0.031184
7.398087 6.714017 -0.031184
6.815379 6.160553 -0.031184
-7.120712 -6.395392 -0.031184
-7.773675 -6.922624 -0.031184
-5.412148 1.496410 -0.031184
-5.651787 0.737088 -0.031184
-6.203470 1.488983 -0.031184
-9.612152 -11.522619 -0.031184
-9.326948 -12.579564 -0.031184
-10.365194 -12.219734 -0.031184
-12.201684 -2.551794 -0.031184
-12.651064 -3.266724 -0.031184
-12.988160 -2.308410 -0.031184
13.802114 -4.196047 -0.031184
12.878982 -4.317646 -0.031184
13.221255 -3.462189 -0.031184
16.676447 -5.397423 -0.031184
15.740287 -5.445356 -0.031184
16.125143 -4.663012 -0.031184
-8.227227 4.253781 -0.031184
-9.172688 4.674778 -0.031184
-8.152024 5.175259 -0.031184
-1.724918 7.318920 -0.031184
-2.639579 7.207287 -0.031184
-2.329522 8.145654 -0.031184
8.301671 6.556474 -0.031184
7.923666 -3.574990 -0.031184
8.335143 -4.192541 -0.031184
7.644528 -4.354839 -0.031184
8.284645 -2.768932 -0.031184
8.998054 -2.229121 -0.031184
9.099475 -2.962049 -0.031184
6.886353 -8.752509 -0.031184
6.993629 -7.988402 -0.031184
7.660495 -8.627106 -0.031184
-5.203156 8.993358 -0.031184
-4.383873 8.514993 -0.031184
-5.632797 8.174072 -0.031184
-15.637392 0.240063 -0.031184
-16.454983 0.274614 -0.031184
-15.829656 1.025328 -0.031184
16.478611 -3.894664 -0.031184
15.630832 -3.895240 -0.031184
-9.600993 -5.421531 -0.031184
-9.265309 -4.586528 -0.031184
-8.864504 -5.186646 -0.031184
9.813005 3.146440 -0.031184
10.053585 2.369213 -0.031184
9.316830 2.444878 -0.031184
16.870790 -3.212761 -0.031184
16.105064 -3.136610 -0.031184
-0.159363 7.925430 -0.031184
6.078973 -8.363071 -0.031184
6.394172 -9.323051 -0.031184
5.504714 -9.207035 -0.031184
-1.445075 1.804059 -0.031184
-1.885756 2.691727 -0.031184
-0.884591 2.560339 -0.031184
-0.877610 5.965245 -0.031184
-1.254550 6.584934 -0.031184
-5.918493 9.008554 -0.031184
9.053008 6.513832 -0.031184
9.640923 6.021560 -0.031184
2.900666 -9.282743 -0.031184
2.044815 -9.357255 -0.031184
2.414356 -8.562524 -0.031184
5.110079 6.551007 -0.031184
5.929714 6.137802 -0.031184
5.042674 5.696444 -0.031184
12.377585 -3.543952 -0.031184
3.751609 -9.221716 -0.031184
3.359981 -9.991048 -0.031184
-11.951583 -3.924648 -0.031184
-11.729586 -3.057076 -0.031184
1.355824 -4.909009 -0.031184
0.679072 -5.391583 -0.031184
0.396187 -4.693131 -0.031184
6.124603 4.672821 -0.031184
5.752325 5.340525 -0.031184
6.562346 5.442879 -0.031184
6.656069 -5.500934 -0.031184
7.321143 -6.158939 -0.031184
6.482772 -6.414817 -0.031184
-11.672795 -14.983384 -0.031184
-12.588097 -15.292643 -0.031184
-2.622604 -2.800936 -0.031184
-3.131839 -2.224409 -0.031184
-2.472760 -1.910023 -0.031184
-17.739151 -1.829955 -0.031184
5.724302 0.729110 -0.031184
6.386819 1.377298 -0.031184
6.741537 0.293589 -0.031184
-2.939448 1.608251 -0.031184
-3.000280 0.818614 -0.031184
-3.843074 1.188986 -0.031184
-7.117020 3.222651 -0.031184
-7.592545 2.417358 -0.031184
-8.143765 3.268205 -0.031184
-14.353257 -1.029438 -0.031184
-14.633543 -2.016485 -0.031184
-15.263885 -1.176351 -0.031184
5.968522 -12.902338 -0.031184
5.477447 -12.331655 -0.031184
6.203607 -12.147098 -0.031184
8.218896 1.016912 -0.031184
7.318913 1.177076 -0.031184
7.905277 1.858897 -0.031184
11.053789 -10.534194 -0.031184
11.282332 -11.263507 -0.031184
10.482549 -10.952349 -0.031184
1.637849 -0.049597 -0.031184
0.845996 -0.023669 -0.031184
1.490452 0.714558 -0.031184
-8.067745 -3.751230 -0.031184
-8.553787 -3.098472 -0.031184
-7.882205 -3.026314 -0.031184
5.082808 3.298835 -0.031184
5.943937 3.150564 -0.031184
5.414505 2.594215 -0.031184
-9.027076 -8.756708 -0.031184
-9.726727 -9.511048 -0.031184
-9.940147 -8.432386 -0.031184
6.294235 -7.339196 -0.031184
2.305033 1.327621 -0.031184
2.281946 0.327563 -0.031184
2.306337 -4.792985 -0.031184
2.027715 -5.617916 -0.031184
-13.100094 -6.530599 -0.031184
-13.916110 -6.760320 -0.031184
-13.636011 -5.871947 -0.031184
5.685143 -0.315692 -0.031184
-6.626910 -0.367121 -0.031184
-7.114647 -0.958712 -0.031184
-7.361841 -0.087325 -0.031184
7.281615 -9.432499 -0.031184
-7.459539 4.689353 -0.031184
-6.650275 4.184190 -0.031184
-7.519027 3.925653 -0.031184
1.162977 -15.742198 -0.031184
1.934358 -16.336288 -0.031184
0.904004 -16.607956 -0.031184
-13.237839 -5.018801 -0.031184
-12.711838 -5.734133 -0.031184
12.993778 -1.154735 -0.031184
12.825056 -0.271099 -0.031184
13.723083 -0.734571 -0.031184
3.700095 1.901659 -0.031184
3.490301 2.788557 -0.031184
4.525783 2.481452 -0.031184
2.579410 -6.293496 -0.031184
1.791633 -6.395068 -0.031184
4.478081 7.122017 -0.031184
4.246346 6.223808 -0.031184
3.498564 6.929411 -0.031184
6.727058 -10.145118 -0.031184
-8.213838 -2.350984 -0.031184
-9.053826 -2.454855 -0.031184
-8.703680 -1.462187 -0.031184
10.924903 -8.880570 -0.031184
11.372734 -9.678979 -0.031184
10.284972 -9.383245 -0.031184
4.182576 -9.940126 -0.031184
5.009879 -9.949953 -0.031184
4.555113 -10.632882 -0.031184
-1.113398 0.930800 -0.031184
-2.131474 1.055478 -0.031184
-1.516214 4.253932 -0.031184
-2.272909 4.270083 -0.031184
-1.986634 4.987829 -0.031184
5.835609 -5.734926 -0.031184
6.013629 -4.837278 -0.031184
2.996290 -10.773423 -0.031184
5.122629 4.748106 -0.031184
4.126616 5.186650 -0.031184
1.252121 2.409387 -0.031184
1.352427 1.638016 -0.031184
0.556325 2.049612 -0.031184
5.383771 1.703511 -0.031184
-6.651108 -4.157331 -0.031184
